<?xml version="1.0"?>
<opencv_storage>
<depth type_id="opencv-matrix">
  <rows>22</rows>
  <cols>350</cols>
  <dt>f</dt>
  <data>
    -1. -1. -1. -1. -1. -1. -1. -1. -1. -1. -1. -1. -1. -1. -1. -1. -1. -1. -1. -1. -1. -1. -1. -1. -1. -1. -1. -1. -1. -1. -1. -1. -1. -1. -1. -1. -1. -1. -1. -1. -1. -1. -1. -1. -1. -1. -1. -1. -1. -1. -1. -1. -1. -1. -1. -1. -1. -1. -1. -1. -1. -1. -1. -1. -1. -1. -1. -1. -1. -1. -1. -1. -1. -1. -1. -1. -1. -1. -1. 9.07578617e-02 8.96852612e-02 8.86377096e-02 8.76143500e-02 8.66143480e-02 8.57767463e-02 8.55162293e-02 8.52572843e-02 8.50351006e-02 8.49161819e-02 8.47975984e-02 8.46793428e-02 8.45614150e-02 8.44438225e-02 8.43265504e-02 8.42096061e-02 8.40929896e-02 8.39766860e-02 8.38607103e-02 8.37450549e-02 8.36436376e-02 8.35568681e-02 8.34702775e-02 8.33838657e-02 8.32976326e-02 8.32115784e-02 8.31257030e-02 8.30400065e-02 8.29544812e-02 8.28691348e-02 8.28128159e-02 8.27659294e-02 8.27190951e-02 8.26723203e-02 8.26255903e-02 8.26171339e-02 8.26174170e-02 8.26177001e-02 8.26179832e-02 8.26182663e-02 8.26185495e-02 8.26188326e-02 8.26191232e-02 8.26132596e-02 8.26032683e-02 8.25932696e-02 8.25832784e-02 8.25732872e-02 8.25633034e-02 8.25533196e-02 8.25433359e-02 8.25333521e-02 8.25233757e-02 8.25133994e-02 8.25034305e-02 8.24934617e-02 8.24834928e-02 8.24735239e-02 8.24635625e-02 8.24536011e-02 8.24436471e-02 8.24336857e-02 8.24237317e-02 8.24137852e-02 8.24038312e-02 8.23938921e-02 8.23839456e-02 8.23740065e-02 8.23640674e-02 8.23541284e-02 8.23441967e-02 8.23342577e-02 8.23243335e-02 8.23144019e-02 8.23044777e-02 8.22945610e-02 8.22846368e-02 8.22747201e-02 8.22648033e-02 8.22548941e-02 8.22449848e-02 8.22350755e-02 8.22251663e-02 8.22152644e-02 8.22053626e-02 8.21954682e-02 8.21855739e-02 8.21756795e-02 8.21657851e-02 8.21558982e-02 8.21460113e-02 8.21361244e-02 8.21262449e-02 8.21163654e-02 8.21064860e-02 8.20966139e-02 8.20867419e-02 8.20768699e-02 8.20670053e-02 8.20571408e-02 8.20472762e-02 8.20374191e-02 8.20275545e-02 8.20177048e-02 8.20078477e-02 8.20162371e-02 8.20250511e-02 8.20338726e-02 8.20427015e-02 8.20515230e-02 8.20603520e-02 8.20691809e-02 8.20780098e-02 8.20868462e-02 8.20956826e-02 8.21045190e-02 8.21133554e-02 8.21221992e-02 8.21310356e-02 8.21398795e-02 8.21487308e-02 8.21575746e-02 8.21664259e-02 8.21752772e-02 8.21841359e-02 8.21929872e-02 8.22018459e-02 8.22107047e-02 8.22195709e-02 8.22284296e-02 8.22372958e-02 8.22461620e-02 8.22550356e-02 8.22639018e-02 8.22727755e-02 8.22816491e-02 8.22905302e-02 8.23032409e-02 8.23303908e-02 8.23575556e-02 8.23847353e-02 8.24119374e-02 8.24391544e-02 8.24663937e-02 8.24936479e-02 8.25209245e-02 8.25482160e-02 8.25755224e-02 8.26028511e-02 8.26301947e-02 8.26575533e-02 8.26849341e-02 8.27123374e-02 8.27397555e-02 8.27671885e-02 8.27946439e-02 8.28221142e-02 8.28496069e-02 8.28771144e-02 8.29052776e-02 8.29393938e-02 8.29735473e-02 8.30077231e-02 8.30419287e-02 8.30761641e-02 8.31104219e-02 8.31447169e-02 8.31790343e-02 8.32133815e-02 8.32477510e-02 8.32821578e-02 8.33165869e-02 8.33510533e-02 8.33855420e-02 8.34200531e-02 8.34546015e-02 8.34891796e-02 8.35237801e-02 8.35584104e-02 8.35930705e-02 8.36277604e-02 8.36624801e-02 8.36972296e-02 8.37320015e-02 8.37668106e-02 8.38016421e-02 8.38365033e-02 8.38714018e-02 8.39063227e-02 8.39412734e-02 8.39762464e-02 8.40112567e-02 8.40462968e-02 8.40813592e-02 8.41164589e-02 8.41515809e-02 8.41867402e-02 8.42219219e-02 8.42571333e-02 8.42923820e-02 8.43276531e-02 8.43629539e-02 8.43982846e-02 8.44336450e-02 8.44690353e-02 8.45044553e-02 8.45399126e-02 8.45753923e-02 8.46109018e-02 8.46464410e-02 8.46820101e-02 8.47176090e-02 8.47532377e-02 8.47888961e-02 8.48245844e-02 8.48603025e-02 8.48960578e-02 8.49318355e-02 8.49676430e-02 8.50034878e-02 8.50431919e-02 8.50989297e-02 8.52054283e-02 8.53160843e-02 8.54270235e-02 8.55382532e-02 8.56497735e-02 8.57615843e-02 8.58736932e-02 8.59860927e-02 8.60987827e-02 8.62117708e-02 8.63250569e-02 8.64386410e-02 8.65525231e-02 8.66667032e-02 8.67811888e-02 8.68959725e-02 8.70110691e-02 8.71264637e-02 8.72421637e-02 8.73581767e-02 8.74744952e-02 8.75911266e-02 8.77080634e-02 8.78253207e-02 8.79428908e-02 8.80607739e-02 8.81789699e-02 8.82974863e-02 8.84163231e-02 8.85354802e-02 8.86549577e-02 8.87747630e-02 8.88948888e-02 8.90153348e-02 8.91361162e-02 8.92572179e-02 8.93786550e-02 8.95004198e-02 8.96225199e-02 8.97449553e-02 8.98677185e-02 8.99908245e-02 -1. -1. -1. -1. -1. -1. -1.
    -1. -1. -1. -1. -1. -1. -1. -1. -1. -1. -1. -1. -1. -1. -1. -1. -1. -1. -1. -1. -1. -1. -1. -1. -1. -1. -1. -1. -1. -1. -1. -1. -1. -1. -1. -1. -1. -1. -1. -1. -1. -1. -1. -1. -1. -1. -1. -1. -1. -1. -1. -1. -1. -1. -1. -1. -1. -1. -1. -1. -1. -1. -1. -1. -1. -1. -1. -1. -1. -1. -1. -1. -1. -1. -1. -1. -1. -1. -1. 9.06951129e-02 8.96239802e-02 8.85778517e-02 8.75558704e-02 8.65571946e-02 8.58148113e-02 8.55540633e-02 8.52948874e-02 8.50563869e-02 8.49374086e-02 8.48187655e-02 8.47004503e-02 8.45824704e-02 8.44648182e-02 8.43474865e-02 8.42304826e-02 8.41138065e-02 8.39974508e-02 8.38814154e-02 8.37657005e-02 8.36503059e-02 8.35458264e-02 8.34592581e-02 8.33728760e-02 8.32866654e-02 8.32006335e-02 8.31147805e-02 8.30291063e-02 8.29436034e-02 8.28582793e-02 8.27955380e-02 8.27486664e-02 8.27018544e-02 8.26550946e-02 8.26143175e-02 8.26146007e-02 8.26148838e-02 8.26151669e-02 8.26154500e-02 8.26157406e-02 8.26160237e-02 8.26163068e-02 8.26092958e-02 8.25992972e-02 8.25893059e-02 8.25793147e-02 8.25693235e-02 8.25593397e-02 8.25493559e-02 8.25393721e-02 8.25293958e-02 8.25194195e-02 8.25094432e-02 8.24994743e-02 8.24895054e-02 8.24795365e-02 8.24695751e-02 8.24596062e-02 8.24496523e-02 8.24396908e-02 8.24297369e-02 8.24197829e-02 8.24098364e-02 8.23998898e-02 8.23899433e-02 8.23799968e-02 8.23700577e-02 8.23601186e-02 8.23501870e-02 8.23402554e-02 8.23303238e-02 8.23203921e-02 8.23104680e-02 8.23005438e-02 8.22906196e-02 8.22807029e-02 8.22707862e-02 8.22608694e-02 8.22509602e-02 8.22410509e-02 8.22311416e-02 8.22212398e-02 8.22113380e-02 8.22014362e-02 8.21915418e-02 8.21816474e-02 8.21717530e-02 8.21618587e-02 8.21519718e-02 8.21420848e-02 8.21322054e-02 8.21223259e-02 8.21124464e-02 8.21025670e-02 8.20926949e-02 8.20828229e-02 8.20729584e-02 8.20630863e-02 8.20532218e-02 8.20433646e-02 8.20335001e-02 8.20236430e-02 8.20137933e-02 8.20039362e-02 8.19954276e-02 8.20042491e-02 8.20130631e-02 8.20218846e-02 8.20307061e-02 8.20395276e-02 8.20483491e-02 8.20571780e-02 8.20660070e-02 8.20748359e-02 8.20836648e-02 8.20925012e-02 8.21013376e-02 8.21101740e-02 8.21190178e-02 8.21278542e-02 8.21366981e-02 8.21455494e-02 8.21543932e-02 8.21632445e-02 8.21720958e-02 8.21809471e-02 8.21898058e-02 8.21986571e-02 8.22075158e-02 8.22163820e-02 8.22252408e-02 8.22341070e-02 8.22429731e-02 8.22518393e-02 8.22607130e-02 8.22695866e-02 8.22784603e-02 8.22873339e-02 8.23101625e-02 8.23373199e-02 8.23644847e-02 8.23916718e-02 8.24188814e-02 8.24461058e-02 8.24733451e-02 8.25006068e-02 8.25278834e-02 8.25551748e-02 8.25824887e-02 8.26098248e-02 8.26371685e-02 8.26645419e-02 8.26919228e-02 8.27193260e-02 8.27467516e-02 8.27741921e-02 8.28016475e-02 8.28291252e-02 8.28566253e-02 8.28850046e-02 8.29191059e-02 8.29532444e-02 8.29874054e-02 8.30215886e-02 8.30558091e-02 8.30900520e-02 8.31243247e-02 8.31586272e-02 8.31929594e-02 8.32273141e-02 8.32616985e-02 8.32961202e-02 8.33305642e-02 8.33650306e-02 8.33995342e-02 8.34340602e-02 8.34686235e-02 8.35032091e-02 8.35378245e-02 8.35724622e-02 8.36071372e-02 8.36418420e-02 8.36765692e-02 8.37113261e-02 8.37461129e-02 8.37809294e-02 8.38157758e-02 8.38506520e-02 8.38855579e-02 8.39204937e-02 8.39554518e-02 8.39904398e-02 8.40254650e-02 8.40605125e-02 8.40955898e-02 8.41306970e-02 8.41658339e-02 8.42010006e-02 8.42361972e-02 8.42714235e-02 8.43066797e-02 8.43419656e-02 8.43772814e-02 8.44126195e-02 8.44479948e-02 8.44834000e-02 8.45188349e-02 8.45542923e-02 8.45897868e-02 8.46253112e-02 8.46608579e-02 8.46964419e-02 8.47320557e-02 8.47676918e-02 8.48033652e-02 8.48390684e-02 8.48748013e-02 8.49105641e-02 8.49463567e-02 8.49900171e-02 8.50370228e-02 8.50840807e-02 8.51754546e-02 8.52854997e-02 8.53963569e-02 8.55075121e-02 8.56189504e-02 8.57306793e-02 8.58427063e-02 8.59550238e-02 8.60676318e-02 8.61805379e-02 8.62937421e-02 8.64072442e-02 8.65210369e-02 8.66351426e-02 8.67495388e-02 8.68642479e-02 8.69792551e-02 8.70945603e-02 8.72101858e-02 8.73261094e-02 8.74423459e-02 8.75588879e-02 8.76757428e-02 8.77929106e-02 8.79103914e-02 8.80281851e-02 8.81462991e-02 8.82647261e-02 8.83834735e-02 8.85025412e-02 8.86219367e-02 8.87416452e-02 8.88616815e-02 8.89820382e-02 8.91027302e-02 8.92237425e-02 8.93450901e-02 8.94667655e-02 8.95887688e-02 8.97111073e-02 8.98337811e-02 8.99567977e-02 -1. -1. -1. -1. -1. -1. -1.
    -1. -1. -1. -1. -1. -1. -1. -1. -1. -1. -1. -1. -1. -1. -1. -1. -1. -1. -1. -1. -1. -1. -1. -1. -1. -1. -1. -1. -1. -1. -1. -1. -1. -1. -1. -1. -1. -1. -1. -1. -1. -1. -1. -1. -1. -1. -1. -1. -1. -1. -1. -1. -1. -1. -1. -1. -1. -1. -1. -1. -1. -1. -1. -1. -1. -1. -1. -1. -1. -1. -1. -1. -1. -1. -1. -1. -1. -1. -1. 9.06324461e-02 8.95627886e-02 8.85180831e-02 8.74974653e-02 8.65001157e-02 8.58529136e-02 8.55919272e-02 8.53325278e-02 8.50776881e-02 8.49586502e-02 8.48399475e-02 8.47215727e-02 8.46035331e-02 8.44858214e-02 8.43684301e-02 8.42513740e-02 8.41346383e-02 8.40182230e-02 8.39021280e-02 8.37863609e-02 8.36709067e-02 8.35557729e-02 8.34482461e-02 8.33618864e-02 8.32756981e-02 8.31896886e-02 8.31038579e-02 8.30182061e-02 8.29327255e-02 8.28474239e-02 8.27782601e-02 8.27314109e-02 8.26846138e-02 8.26378763e-02 8.26117843e-02 8.26120749e-02 8.26123580e-02 8.26126412e-02 8.26129243e-02 8.26132074e-02 8.26134905e-02 8.26053247e-02 8.25953335e-02 8.25853422e-02 8.25753510e-02 8.25653598e-02 8.25553760e-02 8.25453922e-02 8.25354159e-02 8.25254396e-02 8.25154632e-02 8.25054869e-02 8.24955180e-02 8.24855492e-02 8.24755803e-02 8.24656188e-02 8.24556574e-02 8.24456960e-02 8.24357420e-02 8.24257880e-02 8.24158341e-02 8.24058875e-02 8.23959410e-02 8.23859945e-02 8.23760554e-02 8.23661163e-02 8.23561773e-02 8.23462456e-02 8.23363140e-02 8.23263824e-02 8.23164508e-02 8.23065266e-02 8.22966024e-02 8.22866857e-02 8.22767690e-02 8.22668523e-02 8.22569355e-02 8.22470263e-02 8.22371170e-02 8.22272152e-02 8.22173059e-02 8.22074115e-02 8.21975097e-02 8.21876153e-02 8.21777210e-02 8.21678266e-02 8.21579397e-02 8.21480528e-02 8.21381658e-02 8.21282864e-02 8.21184069e-02 8.21085274e-02 8.20986480e-02 8.20887759e-02 8.20789114e-02 8.20690393e-02 8.20591748e-02 8.20493102e-02 8.20394531e-02 8.20295885e-02 8.20197389e-02 8.20098817e-02 8.20000321e-02 8.19901824e-02 8.19834471e-02 8.19922611e-02 8.20010751e-02 8.20098892e-02 8.20187107e-02 8.20275322e-02 8.20363536e-02 8.20451751e-02 8.20540041e-02 8.20628330e-02 8.20716619e-02 8.20804909e-02 8.20893273e-02 8.20981562e-02 8.21070001e-02 8.21158364e-02 8.21246803e-02 8.21335167e-02 8.21423680e-02 8.21512118e-02 8.21600631e-02 8.21689144e-02 8.21777657e-02 8.21866170e-02 8.21954757e-02 8.22043344e-02 8.22131932e-02 8.22220519e-02 8.22309181e-02 8.22397843e-02 8.22486505e-02 8.22575241e-02 8.22663903e-02 8.22752640e-02 8.22899491e-02 8.23170915e-02 8.23442489e-02 8.23714212e-02 8.23986083e-02 8.24258253e-02 8.24530497e-02 8.24802965e-02 8.25075582e-02 8.25348422e-02 8.25621411e-02 8.25894624e-02 8.26167986e-02 8.26441497e-02 8.26715231e-02 8.26989114e-02 8.27263221e-02 8.27537477e-02 8.27811956e-02 8.28086585e-02 8.28361362e-02 8.28647465e-02 8.28988329e-02 8.29329491e-02 8.29670951e-02 8.30012634e-02 8.30354616e-02 8.30696896e-02 8.31039473e-02 8.31382349e-02 8.31725448e-02 8.32068846e-02 8.32412541e-02 8.32756534e-02 8.33100826e-02 8.33445340e-02 8.33790228e-02 8.34135339e-02 8.34480748e-02 8.34826455e-02 8.35172385e-02 8.35518688e-02 8.35865214e-02 8.36212039e-02 8.36559236e-02 8.36906582e-02 8.37254301e-02 8.37602317e-02 8.37950632e-02 8.38299170e-02 8.38648081e-02 8.38997215e-02 8.39346647e-02 8.39696378e-02 8.40046406e-02 8.40396732e-02 8.40747356e-02 8.41098279e-02 8.41449425e-02 8.41800943e-02 8.42152759e-02 8.42504799e-02 8.42857212e-02 8.43209848e-02 8.43562856e-02 8.43916088e-02 8.44269618e-02 8.44623521e-02 8.44977647e-02 8.45332071e-02 8.45686868e-02 8.46041888e-02 8.46397206e-02 8.46752822e-02 8.47108811e-02 8.47465023e-02 8.47821534e-02 8.48178416e-02 8.48535523e-02 8.48900154e-02 8.49369168e-02 8.49838629e-02 8.50308612e-02 8.50779116e-02 8.51586163e-02 8.52549300e-02 8.53657126e-02 8.54767859e-02 8.55881497e-02 8.56997967e-02 8.58117417e-02 8.59239772e-02 8.60365033e-02 8.61493275e-02 8.62624496e-02 8.63758698e-02 8.64895880e-02 8.66036043e-02 8.67179185e-02 8.68325382e-02 8.69474635e-02 8.70626867e-02 8.71782228e-02 8.72940645e-02 8.74102116e-02 8.75266716e-02 8.76434371e-02 8.77605230e-02 8.78779143e-02 8.79956260e-02 8.81136507e-02 8.82319883e-02 8.83506536e-02 8.84696320e-02 8.85889307e-02 8.87085497e-02 8.88284966e-02 8.89487714e-02 8.90693665e-02 8.91902894e-02 8.93115476e-02 8.94331262e-02 8.95550400e-02 8.96772891e-02 8.97998735e-02 8.99227932e-02 -1. -1. -1. -1. -1. -1. -1.
    -1. -1. -1. -1. -1. -1. -1. -1. -1. -1. -1. -1. -1. -1. -1. -1. -1. -1. -1. -1. -1. -1. -1. -1. -1. -1. -1. -1. -1. -1. -1. -1. -1. -1. -1. -1. -1. -1. -1. -1. -1. -1. -1. -1. -1. -1. -1. -1. -1. -1. -1. -1. -1. -1. -1. -1. -1. -1. -1. -1. -1. -1. -1. -1. -1. -1. -1. -1. -1. -1. -1. -1. -1. -1. -1. -1. -1. -1. -1. 9.05698687e-02 8.95016789e-02 8.84583890e-02 8.74391422e-02 8.64431113e-02 8.58910456e-02 8.56298283e-02 8.53701979e-02 8.51121321e-02 8.49798992e-02 8.48611370e-02 8.47427025e-02 8.46246034e-02 8.45068321e-02 8.43893886e-02 8.42722654e-02 8.41554776e-02 8.40390027e-02 8.39228556e-02 8.38070288e-02 8.36915150e-02 8.35763216e-02 8.34614486e-02 8.33508968e-02 8.32647309e-02 8.31787512e-02 8.30929428e-02 8.30073059e-02 8.29218552e-02 8.28365758e-02 8.27609897e-02 8.27141628e-02 8.26673880e-02 8.26206654e-02 8.26092586e-02 8.26095417e-02 8.26098248e-02 8.26101080e-02 8.26103911e-02 8.26106817e-02 8.26013610e-02 8.25913697e-02 8.25813785e-02 8.25713873e-02 8.25614035e-02 8.25514123e-02 8.25414360e-02 8.25314522e-02 8.25214759e-02 8.25114995e-02 8.25015306e-02 8.24915618e-02 8.24815929e-02 8.24716315e-02 8.24616626e-02 8.24517086e-02 8.24417472e-02 8.24317932e-02 8.24218392e-02 8.24118853e-02 8.24019387e-02 8.23919922e-02 8.23820531e-02 8.23721066e-02 8.23621750e-02 8.23522359e-02 8.23423043e-02 8.23323727e-02 8.23224410e-02 8.23125169e-02 8.23025927e-02 8.22926685e-02 8.22827518e-02 8.22728351e-02 8.22629184e-02 8.22530016e-02 8.22430924e-02 8.22331905e-02 8.22232813e-02 8.22133794e-02 8.22034776e-02 8.21935833e-02 8.21836889e-02 8.21737945e-02 8.21639001e-02 8.21540132e-02 8.21441263e-02 8.21342468e-02 8.21243599e-02 8.21144804e-02 8.21046084e-02 8.20947364e-02 8.20848644e-02 8.20749924e-02 8.20651278e-02 8.20552632e-02 8.20453987e-02 8.20355415e-02 8.20256770e-02 8.20158273e-02 8.20059702e-02 8.19961205e-02 8.19862708e-02 8.19764286e-02 8.19714665e-02 8.19802806e-02 8.19890872e-02 8.19979012e-02 8.20067227e-02 8.20155367e-02 8.20243582e-02 8.20331797e-02 8.20420012e-02 8.20508301e-02 8.20596516e-02 8.20684806e-02 8.20773169e-02 8.20861459e-02 8.20949823e-02 8.21038187e-02 8.21126550e-02 8.21214989e-02 8.21303353e-02 8.21391866e-02 8.21480304e-02 8.21568742e-02 8.21657255e-02 8.21745768e-02 8.21834356e-02 8.21922868e-02 8.22011456e-02 8.22100043e-02 8.22188631e-02 8.22277293e-02 8.22365955e-02 8.22454616e-02 8.22543278e-02 8.22632015e-02 8.22720751e-02 8.22968706e-02 8.23240131e-02 8.23511779e-02 8.23783576e-02 8.24055523e-02 8.24327618e-02 8.24600011e-02 8.24872479e-02 8.25145170e-02 8.25418010e-02 8.25691074e-02 8.25964287e-02 8.26237723e-02 8.26511309e-02 8.26785043e-02 8.27059001e-02 8.27333182e-02 8.27607512e-02 8.27881992e-02 8.28156620e-02 8.28444958e-02 8.28785673e-02 8.29126611e-02 8.29467922e-02 8.29809457e-02 8.30151290e-02 8.30493420e-02 8.30835775e-02 8.31178501e-02 8.31521451e-02 8.31864700e-02 8.32208246e-02 8.32552016e-02 8.32896158e-02 8.33240524e-02 8.33585188e-02 8.33930150e-02 8.34275335e-02 8.34620893e-02 8.34966674e-02 8.35312828e-02 8.35659206e-02 8.36005881e-02 8.36352780e-02 8.36700052e-02 8.37047622e-02 8.37395415e-02 8.37743506e-02 8.38091895e-02 8.38440657e-02 8.38789642e-02 8.39138851e-02 8.39488432e-02 8.39838311e-02 8.40188414e-02 8.40538889e-02 8.40889588e-02 8.41240659e-02 8.41591954e-02 8.41943547e-02 8.42295513e-02 8.42647702e-02 8.43000188e-02 8.43352973e-02 8.43706056e-02 8.44059438e-02 8.44413117e-02 8.44767094e-02 8.45121369e-02 8.45475942e-02 8.45830813e-02 8.46185908e-02 8.46541375e-02 8.46897140e-02 8.47253203e-02 8.47609565e-02 8.47966224e-02 8.48370418e-02 8.48838761e-02 8.49307626e-02 8.49777013e-02 8.50246996e-02 8.50717425e-02 8.51417854e-02 8.52352455e-02 8.53350908e-02 8.54460821e-02 8.55573639e-02 8.56689364e-02 8.57807994e-02 8.58929530e-02 8.60053971e-02 8.61181393e-02 8.62311795e-02 8.63445178e-02 8.64581540e-02 8.65720809e-02 8.66863206e-02 8.68008584e-02 8.69156942e-02 8.70308354e-02 8.71462896e-02 8.72620419e-02 8.73781070e-02 8.74944776e-02 8.76111612e-02 8.77281576e-02 8.78454670e-02 8.79630893e-02 8.80810246e-02 8.81992802e-02 8.83178487e-02 8.84367377e-02 8.85559544e-02 8.86754841e-02 8.87953416e-02 8.89155269e-02 8.90360326e-02 8.91568661e-02 8.92780274e-02 8.93995166e-02 8.95213410e-02 8.96435007e-02 8.97659883e-02 8.98888111e-02 -1. -1. -1. -1. -1. -1. -1.
    -1. -1. -1. -1. -1. -1. -1. -1. -1. -1. -1. -1. -1. -1. -1. -1. -1. -1. -1. -1. -1. -1. -1. -1. -1. -1. -1. -1. -1. -1. -1. -1. -1. -1. -1. -1. -1. -1. -1. -1. -1. -1. -1. -1. -1. -1. -1. -1. -1. -1. -1. -1. -1. -1. -1. -1. -1. -1. -1. -1. -1. -1. -1. -1. -1. -1. -1. -1. -1. -1. -1. -1. -1. -1. -1. -1. -1. -1. -1. 9.05073732e-02 8.94406512e-02 8.83987695e-02 8.73808935e-02 8.63861814e-02 8.59292150e-02 8.56677666e-02 8.54079053e-02 8.51496160e-02 8.50011632e-02 8.48823413e-02 8.47638473e-02 8.46456885e-02 8.45278576e-02 8.44103545e-02 8.42931792e-02 8.41763243e-02 8.40597972e-02 8.39435905e-02 8.38277042e-02 8.37121382e-02 8.35968852e-02 8.34819600e-02 8.33673403e-02 8.32537711e-02 8.31678063e-02 8.30820203e-02 8.29964131e-02 8.29109848e-02 8.28257278e-02 8.27437267e-02 8.26969221e-02 8.26501623e-02 8.26064423e-02 8.26067254e-02 8.26070160e-02 8.26072991e-02 8.26075822e-02 8.26073885e-02 8.25973973e-02 8.25874060e-02 8.25774148e-02 8.25674236e-02 8.25574398e-02 8.25474560e-02 8.25374722e-02 8.25274959e-02 8.25175196e-02 8.25075433e-02 8.24975744e-02 8.24876055e-02 8.24776366e-02 8.24676752e-02 8.24577138e-02 8.24477524e-02 8.24377984e-02 8.24278444e-02 8.24178904e-02 8.24079439e-02 8.23979899e-02 8.23880509e-02 8.23781043e-02 8.23681653e-02 8.23582262e-02 8.23482946e-02 8.23383629e-02 8.23284313e-02 8.23184997e-02 8.23085755e-02 8.22986513e-02 8.22887346e-02 8.22788104e-02 8.22688937e-02 8.22589844e-02 8.22490752e-02 8.22391659e-02 8.22292566e-02 8.22193548e-02 8.22094530e-02 8.21995512e-02 8.21896568e-02 8.21797624e-02 8.21698681e-02 8.21599811e-02 8.21500868e-02 8.21402073e-02 8.21303204e-02 8.21204409e-02 8.21105614e-02 8.21006894e-02 8.20908174e-02 8.20809454e-02 8.20710734e-02 8.20612088e-02 8.20513442e-02 8.20414871e-02 8.20316225e-02 8.20217729e-02 8.20119157e-02 8.20020661e-02 8.19922164e-02 8.19823667e-02 8.19725245e-02 8.19626823e-02 8.19594935e-02 8.19683000e-02 8.19771066e-02 8.19859207e-02 8.19947347e-02 8.20035487e-02 8.20123628e-02 8.20211843e-02 8.20300058e-02 8.20388272e-02 8.20476487e-02 8.20564777e-02 8.20653066e-02 8.20741355e-02 8.20829719e-02 8.20918009e-02 8.21006373e-02 8.21094736e-02 8.21183175e-02 8.21271613e-02 8.21360052e-02 8.21448490e-02 8.21536928e-02 8.21625441e-02 8.21713954e-02 8.21802467e-02 8.21891055e-02 8.21979567e-02 8.22068155e-02 8.22156817e-02 8.22245404e-02 8.22334066e-02 8.22422728e-02 8.22511390e-02 8.22600126e-02 8.22766647e-02 8.23037922e-02 8.23309422e-02 8.23581070e-02 8.23852867e-02 8.24124888e-02 8.24397057e-02 8.24669451e-02 8.24941993e-02 8.25214759e-02 8.25487673e-02 8.25760737e-02 8.26034024e-02 8.26307461e-02 8.26581120e-02 8.26854929e-02 8.27128962e-02 8.27403143e-02 8.27677473e-02 8.27952027e-02 8.28242525e-02 8.28583091e-02 8.28923881e-02 8.29264969e-02 8.29606354e-02 8.29948038e-02 8.30290020e-02 8.30632225e-02 8.30974728e-02 8.31317529e-02 8.31660628e-02 8.32003951e-02 8.32347646e-02 8.32691565e-02 8.33035782e-02 8.33380222e-02 8.33725035e-02 8.34070072e-02 8.34415480e-02 8.34761113e-02 8.35107043e-02 8.35453197e-02 8.35799724e-02 8.36146548e-02 8.36493596e-02 8.36840943e-02 8.37188587e-02 8.37536529e-02 8.37884769e-02 8.38233307e-02 8.38582143e-02 8.38931203e-02 8.39280635e-02 8.39630291e-02 8.39980245e-02 8.40330496e-02 8.40681121e-02 8.41031969e-02 8.41383114e-02 8.41734484e-02 8.42086226e-02 8.42438266e-02 8.42790604e-02 8.43143240e-02 8.43496099e-02 8.43849331e-02 8.44202787e-02 8.44556615e-02 8.44910741e-02 8.45265090e-02 8.45619813e-02 8.45974758e-02 8.46330076e-02 8.46685618e-02 8.47041532e-02 8.47397670e-02 8.47841278e-02 8.48309025e-02 8.48777369e-02 8.49246159e-02 8.49715471e-02 8.50185379e-02 8.50655735e-02 8.51249546e-02 8.52183774e-02 8.53120089e-02 8.54154006e-02 8.55266079e-02 8.56380910e-02 8.57498720e-02 8.58619511e-02 8.59743133e-02 8.60869735e-02 8.61999318e-02 8.63131881e-02 8.64267424e-02 8.65405872e-02 8.66547450e-02 8.67691934e-02 8.68839473e-02 8.69990066e-02 8.71143714e-02 8.72300416e-02 8.73460248e-02 8.74623135e-02 8.75789076e-02 8.76958147e-02 8.78130347e-02 8.79305750e-02 8.80484208e-02 8.81665871e-02 8.82850736e-02 8.84038731e-02 8.85230005e-02 8.86424407e-02 8.87622088e-02 8.88823047e-02 8.90027210e-02 8.91234651e-02 8.92445371e-02 8.93659368e-02 8.94876644e-02 8.96097273e-02 8.97321254e-02 8.98548588e-02 -1. -1. -1. -1. -1. -1. -1.
    -1. -1. -1. -1. -1. -1. -1. -1. -1. -1. -1. -1. -1. -1. -1. -1. -1. -1. -1. -1. -1. -1. -1. -1. -1. -1. -1. -1. -1. -1. -1. -1. -1. -1. -1. -1. -1. -1. -1. -1. -1. -1. -1. -1. -1. -1. -1. -1. -1. -1. -1. -1. -1. -1. -1. -1. -1. -1. -1. -1. -1. -1. -1. -1. -1. -1. -1. -1. -1. -1. -1. -1. -1. -1. -1. -1. -1. -1. -1. 9.04449672e-02 8.93797055e-02 8.83392394e-02 8.73227194e-02 8.63293335e-02 8.59674141e-02 8.57057348e-02 8.54456425e-02 8.51871222e-02 8.50224346e-02 8.49035531e-02 8.47849995e-02 8.46667811e-02 8.45488906e-02 8.44313279e-02 8.43140930e-02 8.41971859e-02 8.40805992e-02 8.39643329e-02 8.38483945e-02 8.37327689e-02 8.36174637e-02 8.35024789e-02 8.33878070e-02 8.32734481e-02 8.31594020e-02 8.30711126e-02 8.29855278e-02 8.29001144e-02 8.28148797e-02 8.27298164e-02 8.26796815e-02 8.26329440e-02 8.26039165e-02 8.26041996e-02 8.26044828e-02 8.26047659e-02 8.26034248e-02 8.25934336e-02 8.25834349e-02 8.25734511e-02 8.25634599e-02 8.25534761e-02 8.25434923e-02 8.25335160e-02 8.25235397e-02 8.25135633e-02 8.25035870e-02 8.24936181e-02 8.24836493e-02 8.24736878e-02 8.24637190e-02 8.24537575e-02 8.24438035e-02 8.24338496e-02 8.24238956e-02 8.24139416e-02 8.24039951e-02 8.23940486e-02 8.23841020e-02 8.23741630e-02 8.23642239e-02 8.23542848e-02 8.23443532e-02 8.23344216e-02 8.23244900e-02 8.23145658e-02 8.23046416e-02 8.22947174e-02 8.22847933e-02 8.22748765e-02 8.22649598e-02 8.22550505e-02 8.22451413e-02 8.22352320e-02 8.22253302e-02 8.22154209e-02 8.22055191e-02 8.21956247e-02 8.21857303e-02 8.21758360e-02 8.21659416e-02 8.21560547e-02 8.21461678e-02 8.21362808e-02 8.21264014e-02 8.21165219e-02 8.21066424e-02 8.20967704e-02 8.20868984e-02 8.20770264e-02 8.20671618e-02 8.20572972e-02 8.20474327e-02 8.20375755e-02 8.20277110e-02 8.20178613e-02 8.20080042e-02 8.19981545e-02 8.19883049e-02 8.19784626e-02 8.19686130e-02 8.19587782e-02 8.19489360e-02 8.19475204e-02 8.19563270e-02 8.19651335e-02 8.19739401e-02 8.19827542e-02 8.19915608e-02 8.20003748e-02 8.20091963e-02 8.20180103e-02 8.20268318e-02 8.20356533e-02 8.20444748e-02 8.20533037e-02 8.20621327e-02 8.20709616e-02 8.20797905e-02 8.20886269e-02 8.20974633e-02 8.21062997e-02 8.21151361e-02 8.21239799e-02 8.21328238e-02 8.21416676e-02 8.21505114e-02 8.21593627e-02 8.21682140e-02 8.21770653e-02 8.21859166e-02 8.21947753e-02 8.22036341e-02 8.22124928e-02 8.22213516e-02 8.22302178e-02 8.22390839e-02 8.22479501e-02 8.22568238e-02 8.22835788e-02 8.23107138e-02 8.23378712e-02 8.23650360e-02 8.23922232e-02 8.24194327e-02 8.24466571e-02 8.24738964e-02 8.25011581e-02 8.25284347e-02 8.25557336e-02 8.25830474e-02 8.26103762e-02 8.26377273e-02 8.26650932e-02 8.26924816e-02 8.27198848e-02 8.27473104e-02 8.27747509e-02 8.28040242e-02 8.28380585e-02 8.28721225e-02 8.29062164e-02 8.29403400e-02 8.29744935e-02 8.30086693e-02 8.30428749e-02 8.30771104e-02 8.31113681e-02 8.31456631e-02 8.31799805e-02 8.32143277e-02 8.32487047e-02 8.32831115e-02 8.33175406e-02 8.33520070e-02 8.33864957e-02 8.34210142e-02 8.34555551e-02 8.34901333e-02 8.35247412e-02 8.35593715e-02 8.35940316e-02 8.36287215e-02 8.36634412e-02 8.36981907e-02 8.37329701e-02 8.37677717e-02 8.38026106e-02 8.38374719e-02 8.38723630e-02 8.39072838e-02 8.39422345e-02 8.39772150e-02 8.40122253e-02 8.40472654e-02 8.40823352e-02 8.41174275e-02 8.41525570e-02 8.41877088e-02 8.42228979e-02 8.42581093e-02 8.42933580e-02 8.43286291e-02 8.43639299e-02 8.43992606e-02 8.44346285e-02 8.44700187e-02 8.45054388e-02 8.45408887e-02 8.45763683e-02 8.46118852e-02 8.46474245e-02 8.46846104e-02 8.47312734e-02 8.47779959e-02 8.48247707e-02 8.48715901e-02 8.49184692e-02 8.49653929e-02 8.50123763e-02 8.50594044e-02 8.51081386e-02 8.52015242e-02 8.52951184e-02 8.53889138e-02 8.54958668e-02 8.56072754e-02 8.57189745e-02 8.58309716e-02 8.59432518e-02 8.60558376e-02 8.61687139e-02 8.62818807e-02 8.63953531e-02 8.65091160e-02 8.66231844e-02 8.67375582e-02 8.68522301e-02 8.69672075e-02 8.70824829e-02 8.71980712e-02 8.73139650e-02 8.74301642e-02 8.75466764e-02 8.76635015e-02 8.77806321e-02 8.78980830e-02 8.80158469e-02 8.81339237e-02 8.82523209e-02 8.83710384e-02 8.84900689e-02 8.86094272e-02 8.87291059e-02 8.88491049e-02 8.89694318e-02 8.90900865e-02 8.92110690e-02 8.93323794e-02 8.94540176e-02 8.95759910e-02 8.96982923e-02 8.98209363e-02 -1. -1. -1. -1. -1. -1. -1.
    -1. -1. -1. -1. -1. -1. -1. -1. -1. -1. -1. -1. -1. -1. -1. -1. -1. -1. -1. -1. -1. -1. -1. -1. -1. -1. -1. -1. -1. -1. -1. -1. -1. -1. -1. -1. -1. -1. -1. -1. -1. -1. -1. -1. -1. -1. -1. -1. -1. -1. -1. -1. -1. -1. -1. -1. -1. -1. -1. -1. -1. -1. -1. -1. -1. -1. -1. -1. -1. -1. -1. -1. -1. -1. -1. -1. -1. -1. -1. 9.03826505e-02 8.93188417e-02 8.82797912e-02 8.72646272e-02 8.62725526e-02 8.60056505e-02 8.57437402e-02 8.54834169e-02 8.52246657e-02 8.50437135e-02 8.49247724e-02 8.48061666e-02 8.46878886e-02 8.45699385e-02 8.44523162e-02 8.43350217e-02 8.42180550e-02 8.41014087e-02 8.39850903e-02 8.38690922e-02 8.37534070e-02 8.36380497e-02 8.35230052e-02 8.34082738e-02 8.32938626e-02 8.31797644e-02 8.30659717e-02 8.29746351e-02 8.28892514e-02 8.28040391e-02 8.27189982e-02 8.26624557e-02 8.26157406e-02 8.26013833e-02 8.26016739e-02 8.26019570e-02 8.25994611e-02 8.25894624e-02 8.25794712e-02 8.25694874e-02 8.25594962e-02 8.25495124e-02 8.25395361e-02 8.25295523e-02 8.25195760e-02 8.25095996e-02 8.24996307e-02 8.24896619e-02 8.24796930e-02 8.24697316e-02 8.24597701e-02 8.24498087e-02 8.24398547e-02 8.24298933e-02 8.24199468e-02 8.24099928e-02 8.24000463e-02 8.23900998e-02 8.23801607e-02 8.23702142e-02 8.23602825e-02 8.23503435e-02 8.23404118e-02 8.23304802e-02 8.23205486e-02 8.23106244e-02 8.23007002e-02 8.22907761e-02 8.22808594e-02 8.22709426e-02 8.22610259e-02 8.22511166e-02 8.22412074e-02 8.22312981e-02 8.22213963e-02 8.22114944e-02 8.22015926e-02 8.21916983e-02 8.21818039e-02 8.21719095e-02 8.21620151e-02 8.21521282e-02 8.21422487e-02 8.21323618e-02 8.21224824e-02 8.21126029e-02 8.21027234e-02 8.20928514e-02 8.20829794e-02 8.20731148e-02 8.20632428e-02 8.20533782e-02 8.20435211e-02 8.20336640e-02 8.20238069e-02 8.20139498e-02 8.20040926e-02 8.19942430e-02 8.19844007e-02 8.19745511e-02 8.19647089e-02 8.19548666e-02 8.19450319e-02 8.19351971e-02 8.19355547e-02 8.19443539e-02 8.19531605e-02 8.19619671e-02 8.19707736e-02 8.19795802e-02 8.19883943e-02 8.19972083e-02 8.20060223e-02 8.20148438e-02 8.20236579e-02 8.20324793e-02 8.20413008e-02 8.20501298e-02 8.20589587e-02 8.20677876e-02 8.20766166e-02 8.20854455e-02 8.20942819e-02 8.21031183e-02 8.21119547e-02 8.21207985e-02 8.21296424e-02 8.21384862e-02 8.21473300e-02 8.21561739e-02 8.21650252e-02 8.21738765e-02 8.21827352e-02 8.21915865e-02 8.22004452e-02 8.22093040e-02 8.22181627e-02 8.22270289e-02 8.22358951e-02 8.22447613e-02 8.22633803e-02 8.22905004e-02 8.23176429e-02 8.23447928e-02 8.23719725e-02 8.23991597e-02 8.24263766e-02 8.24536011e-02 8.24808478e-02 8.25081095e-02 8.25353935e-02 8.25626925e-02 8.25900137e-02 8.26173499e-02 8.26447085e-02 8.26720744e-02 8.26994702e-02 8.27268809e-02 8.27543065e-02 8.27838033e-02 8.28178227e-02 8.28518718e-02 8.28859508e-02 8.29200521e-02 8.29541832e-02 8.29883516e-02 8.30225348e-02 8.30567554e-02 8.30909982e-02 8.31252709e-02 8.31595734e-02 8.31939057e-02 8.32282677e-02 8.32626522e-02 8.32970664e-02 8.33315179e-02 8.33659843e-02 8.34004879e-02 8.34350213e-02 8.34695771e-02 8.35041627e-02 8.35387781e-02 8.35734233e-02 8.36080983e-02 8.36428031e-02 8.36775303e-02 8.37122872e-02 8.37470815e-02 8.37818980e-02 8.38167444e-02 8.38516206e-02 8.38865265e-02 8.39214548e-02 8.39564204e-02 8.39914083e-02 8.40264335e-02 8.40614811e-02 8.40965658e-02 8.41316730e-02 8.41668099e-02 8.42019767e-02 8.42371732e-02 8.42723995e-02 8.43076557e-02 8.43429416e-02 8.43782574e-02 8.44136029e-02 8.44489783e-02 8.44843760e-02 8.45198110e-02 8.45552757e-02 8.45907703e-02 8.46318826e-02 8.46784934e-02 8.47251564e-02 8.47718716e-02 8.48186389e-02 8.48654509e-02 8.49123225e-02 8.49592388e-02 8.50062147e-02 8.50532353e-02 8.51003155e-02 8.51846710e-02 8.52782279e-02 8.53719860e-02 8.54659528e-02 8.55764821e-02 8.56880993e-02 8.58000144e-02 8.59122202e-02 8.60247165e-02 8.61375108e-02 8.62505957e-02 8.63639861e-02 8.64776745e-02 8.65916535e-02 8.67059454e-02 8.68205279e-02 8.69354233e-02 8.70506167e-02 8.71661231e-02 8.72819275e-02 8.73980448e-02 8.75144675e-02 8.76312107e-02 8.77482593e-02 8.78656209e-02 8.79832953e-02 8.81012827e-02 8.82195905e-02 8.83382186e-02 8.84571671e-02 8.85764360e-02 8.86960253e-02 8.88159350e-02 8.89361724e-02 8.90567303e-02 8.91776234e-02 8.92988443e-02 8.94203931e-02 8.95422697e-02 8.96644816e-02 8.97870287e-02 -1. -1. -1. -1. -1. -1. -1.
    -1. -1. -1. -1. -1. -1. -1. -1. -1. -1. -1. -1. -1. -1. -1. -1. -1. -1. -1. -1. -1. -1. -1. -1. -1. -1. -1. -1. -1. -1. -1. -1. -1. -1. -1. -1. -1. -1. -1. -1. -1. -1. -1. -1. -1. -1. -1. -1. -1. -1. -1. -1. -1. -1. -1. -1. -1. -1. -1. -1. -1. -1. -1. -1. -1. -1. -1. -1. -1. -1. -1. -1. -1. -1. -1. -1. -1. -1. -1. 9.03204158e-02 8.92580673e-02 8.82204175e-02 8.72066095e-02 8.63076746e-02 8.60439166e-02 8.57817754e-02 8.55212212e-02 8.52622464e-02 8.50650072e-02 8.49460065e-02 8.48273337e-02 8.47090036e-02 8.45909938e-02 8.44733119e-02 8.43559653e-02 8.42389390e-02 8.41222331e-02 8.40058550e-02 8.38897973e-02 8.37740600e-02 8.36586431e-02 8.35435390e-02 8.34287554e-02 8.33142847e-02 8.32001269e-02 8.30862895e-02 8.29727575e-02 8.28783885e-02 8.27931985e-02 8.27081800e-02 8.26452374e-02 8.25985745e-02 8.25988576e-02 8.25991407e-02 8.25954899e-02 8.25854987e-02 8.25755075e-02 8.25655237e-02 8.25555399e-02 8.25455561e-02 8.25355724e-02 8.25255960e-02 8.25156197e-02 8.25056434e-02 8.24956745e-02 8.24857056e-02 8.24757442e-02 8.24657753e-02 8.24558139e-02 8.24458599e-02 8.24358985e-02 8.24259445e-02 8.24159980e-02 8.24060440e-02 8.23960975e-02 8.23861584e-02 8.23762119e-02 8.23662728e-02 8.23563337e-02 8.23464021e-02 8.23364705e-02 8.23265389e-02 8.23166147e-02 8.23066831e-02 8.22967663e-02 8.22868422e-02 8.22769254e-02 8.22670087e-02 8.22570994e-02 8.22471827e-02 8.22372735e-02 8.22273716e-02 8.22174698e-02 8.22075680e-02 8.21976662e-02 8.21877718e-02 8.21778774e-02 8.21679831e-02 8.21580961e-02 8.21482092e-02 8.21383223e-02 8.21284428e-02 8.21185634e-02 8.21086839e-02 8.20988119e-02 8.20889324e-02 8.20790678e-02 8.20691958e-02 8.20593312e-02 8.20494667e-02 8.20396096e-02 8.20297524e-02 8.20198953e-02 8.20100382e-02 8.20001885e-02 8.19903389e-02 8.19804892e-02 8.19706470e-02 8.19608048e-02 8.19509625e-02 8.19411278e-02 8.19312930e-02 8.19214582e-02 8.19235891e-02 8.19323882e-02 8.19411874e-02 8.19499940e-02 8.19587931e-02 8.19676071e-02 8.19764137e-02 8.19852203e-02 8.19940343e-02 8.20028484e-02 8.20116699e-02 8.20204839e-02 8.20293054e-02 8.20381269e-02 8.20469558e-02 8.20557773e-02 8.20646062e-02 8.20734426e-02 8.20822716e-02 8.20911080e-02 8.20999369e-02 8.21087807e-02 8.21176171e-02 8.21264610e-02 8.21353048e-02 8.21441486e-02 8.21529925e-02 8.21618438e-02 8.21706951e-02 8.21795464e-02 8.21884051e-02 8.21972564e-02 8.22061151e-02 8.22149813e-02 8.22238401e-02 8.22327062e-02 8.22431892e-02 8.22702944e-02 8.22974220e-02 8.23245645e-02 8.23517293e-02 8.23789015e-02 8.24061036e-02 8.24333206e-02 8.24605525e-02 8.24877992e-02 8.25150684e-02 8.25423598e-02 8.25696588e-02 8.25969875e-02 8.26243237e-02 8.26516822e-02 8.26790631e-02 8.27064589e-02 8.27338696e-02 8.27635899e-02 8.27975944e-02 8.28316286e-02 8.28656852e-02 8.28997791e-02 8.29338953e-02 8.29680339e-02 8.30022097e-02 8.30364078e-02 8.30706358e-02 8.31048936e-02 8.31391811e-02 8.31734985e-02 8.32078382e-02 8.32422078e-02 8.32766071e-02 8.33110362e-02 8.33454877e-02 8.33799765e-02 8.34144875e-02 8.34490284e-02 8.34835991e-02 8.35181996e-02 8.35528225e-02 8.35874826e-02 8.36221650e-02 8.36568847e-02 8.36916268e-02 8.37263986e-02 8.37611929e-02 8.37960243e-02 8.38308856e-02 8.38657692e-02 8.39006901e-02 8.39356333e-02 8.39706063e-02 8.40056092e-02 8.40406418e-02 8.40757042e-02 8.41107965e-02 8.41459185e-02 8.41810703e-02 8.42162445e-02 8.42514560e-02 8.42866972e-02 8.43219608e-02 8.43572617e-02 8.43925849e-02 8.44279453e-02 8.44633281e-02 8.44987482e-02 8.45341906e-02 8.45792294e-02 8.46257806e-02 8.46723840e-02 8.47190395e-02 8.47657472e-02 8.48125070e-02 8.48593116e-02 8.49061757e-02 8.49530920e-02 8.50000530e-02 8.50470737e-02 8.50941390e-02 8.51678327e-02 8.52613524e-02 8.53550732e-02 8.54490027e-02 8.55457112e-02 8.56572464e-02 8.57690796e-02 8.58812034e-02 8.59936178e-02 8.61063302e-02 8.62193406e-02 8.63326415e-02 8.64462480e-02 8.65601525e-02 8.66743550e-02 8.67888555e-02 8.69036615e-02 8.70187730e-02 8.71341899e-02 8.72499198e-02 8.73659477e-02 8.74822885e-02 8.75989422e-02 8.77159014e-02 8.78331736e-02 8.79507661e-02 8.80686715e-02 8.81868899e-02 8.83054286e-02 8.84242877e-02 8.85434672e-02 8.86629671e-02 8.87827873e-02 8.89029354e-02 8.90234038e-02 8.91442075e-02 8.92653316e-02 8.93867910e-02 8.95085782e-02 8.96307006e-02 8.97531584e-02 -1. -1. -1. -1. -1. -1. -1.
    -1. -1. -1. -1. -1. -1. -1. -1. -1. -1. -1. -1. -1. -1. -1. -1. -1. -1. -1. -1. -1. -1. -1. -1. -1. -1. -1. -1. -1. -1. -1. -1. -1. -1. -1. -1. -1. -1. -1. -1. -1. -1. -1. -1. -1. -1. -1. -1. -1. -1. -1. -1. -1. -1. -1. -1. -1. -1. -1. -1. -1. -1. -1. -1. -1. -1. -1. -1. -1. -1. -1. -1. -1. -1. -1. -1. -1. -1. -1. 9.02582705e-02 8.91973674e-02 8.81611183e-02 8.71486738e-02 8.63462090e-02 8.60822201e-02 8.58198404e-02 8.55590627e-02 8.52998570e-02 8.50863084e-02 8.49672481e-02 8.48485231e-02 8.47301260e-02 8.46120566e-02 8.44943225e-02 8.43769088e-02 8.42598304e-02 8.41430649e-02 8.40266272e-02 8.39105174e-02 8.37947205e-02 8.36792439e-02 8.35640877e-02 8.34492445e-02 8.33347216e-02 8.32205117e-02 8.31066072e-02 8.29930231e-02 8.28797445e-02 8.27823579e-02 8.26973692e-02 8.26280192e-02 8.25960413e-02 8.25963318e-02 8.25915262e-02 8.25815350e-02 8.25715438e-02 8.25615600e-02 8.25515762e-02 8.25415924e-02 8.25316161e-02 8.25216398e-02 8.25116634e-02 8.25016871e-02 8.24917182e-02 8.24817494e-02 8.24717879e-02 8.24618265e-02 8.24518651e-02 8.24419037e-02 8.24319497e-02 8.24219957e-02 8.24120492e-02 8.24020952e-02 8.23921561e-02 8.23822096e-02 8.23722705e-02 8.23623314e-02 8.23523924e-02 8.23424608e-02 8.23325291e-02 8.23225975e-02 8.23126733e-02 8.23027492e-02 8.22928250e-02 8.22829083e-02 8.22729915e-02 8.22630748e-02 8.22531655e-02 8.22432563e-02 8.22333470e-02 8.22234377e-02 8.22135359e-02 8.22036341e-02 8.21937397e-02 8.21838453e-02 8.21739510e-02 8.21640566e-02 8.21541697e-02 8.21442828e-02 8.21344033e-02 8.21245164e-02 8.21146443e-02 8.21047649e-02 8.20948929e-02 8.20850208e-02 8.20751488e-02 8.20652843e-02 8.20554197e-02 8.20455551e-02 8.20356980e-02 8.20258409e-02 8.20159838e-02 8.20061266e-02 8.19962770e-02 8.19864273e-02 8.19765851e-02 8.19667429e-02 8.19569007e-02 8.19470584e-02 8.19372237e-02 8.19273889e-02 8.19175616e-02 8.19077343e-02 8.19116235e-02 8.19204226e-02 8.19292217e-02 8.19380209e-02 8.19468275e-02 8.19556266e-02 8.19644332e-02 8.19732472e-02 8.19820538e-02 8.19908679e-02 8.19996819e-02 8.20084959e-02 8.20173174e-02 8.20261315e-02 8.20349604e-02 8.20437819e-02 8.20526034e-02 8.20614323e-02 8.20702612e-02 8.20790976e-02 8.20879266e-02 8.20967630e-02 8.21055993e-02 8.21144357e-02 8.21232796e-02 8.21321234e-02 8.21409672e-02 8.21498111e-02 8.21586624e-02 8.21675137e-02 8.21763650e-02 8.21852162e-02 8.21940750e-02 8.22029337e-02 8.22117925e-02 8.22206512e-02 8.22295174e-02 8.22501034e-02 8.22772160e-02 8.23043436e-02 8.23314935e-02 8.23586583e-02 8.23858380e-02 8.24130401e-02 8.24402645e-02 8.24674964e-02 8.24947506e-02 8.25220272e-02 8.25493187e-02 8.25766325e-02 8.26039538e-02 8.26313049e-02 8.26586634e-02 8.26860517e-02 8.27134475e-02 8.27433914e-02 8.27773735e-02 8.28113928e-02 8.28454345e-02 8.28795061e-02 8.29136074e-02 8.29477385e-02 8.29818919e-02 8.30160752e-02 8.30502883e-02 8.30845311e-02 8.31187963e-02 8.31530914e-02 8.31874162e-02 8.32217708e-02 8.32561553e-02 8.32905620e-02 8.33250061e-02 8.33594725e-02 8.33939686e-02 8.34284946e-02 8.34630430e-02 8.34976286e-02 8.35322365e-02 8.35668743e-02 8.36015418e-02 8.36362392e-02 8.36709663e-02 8.37057233e-02 8.37405026e-02 8.37753192e-02 8.38101581e-02 8.38450268e-02 8.38799253e-02 8.39148536e-02 8.39498118e-02 8.39847997e-02 8.40198174e-02 8.40548575e-02 8.40899348e-02 8.41250345e-02 8.41601714e-02 8.41953307e-02 8.42305198e-02 8.42657462e-02 8.43009949e-02 8.43362734e-02 8.43715817e-02 8.44069198e-02 8.44422877e-02 8.44801888e-02 8.45266357e-02 8.45731273e-02 8.46196711e-02 8.46662745e-02 8.47129226e-02 8.47596228e-02 8.48063752e-02 8.48531723e-02 8.49000290e-02 8.49469379e-02 8.49938989e-02 8.50409046e-02 8.50879699e-02 8.51509944e-02 8.52444768e-02 8.53381604e-02 8.54320526e-02 8.55261534e-02 8.56264159e-02 8.57381672e-02 8.58502090e-02 8.59625489e-02 8.60751718e-02 8.61881003e-02 8.63013268e-02 8.64148438e-02 8.65286663e-02 8.66427869e-02 8.67572054e-02 8.68719295e-02 8.69869590e-02 8.71022865e-02 8.72179270e-02 8.73338729e-02 8.74501318e-02 8.75666961e-02 8.76835734e-02 8.78007561e-02 8.79182592e-02 8.80360752e-02 8.81542116e-02 8.82726610e-02 8.83914307e-02 8.85105208e-02 8.86299312e-02 8.87496620e-02 8.88697207e-02 8.89901072e-02 8.91108140e-02 8.92318487e-02 8.93532187e-02 8.94749165e-02 8.95969421e-02 8.97193030e-02 -1. -1. -1. -1. -1. -1. -1.
    -1. -1. -1. -1. -1. -1. -1. -1. -1. -1. -1. -1. -1. -1. -1. -1. -1. -1. -1. -1. -1. -1. -1. -1. -1. -1. -1. -1. -1. -1. -1. -1. -1. -1. -1. -1. -1. -1. -1. -1. -1. -1. -1. -1. -1. -1. -1. -1. -1. -1. -1. -1. -1. -1. -1. -1. -1. -1. -1. -1. -1. -1. -1. -1. -1. -1. -1. -1. -1. -1. -1. -1. -1. -1. -1. -1. -1. -1. -1. 9.01962072e-02 8.91367570e-02 8.81019086e-02 8.70908126e-02 8.63847807e-02 8.61205608e-02 8.58579502e-02 8.55969340e-02 8.53374973e-02 8.51076245e-02 8.49885046e-02 8.48697126e-02 8.47512633e-02 8.46331343e-02 8.45153406e-02 8.43978748e-02 8.42807293e-02 8.41639116e-02 8.40474144e-02 8.39312449e-02 8.38153958e-02 8.36998597e-02 8.35846439e-02 8.34697485e-02 8.33551660e-02 8.32408965e-02 8.31269473e-02 8.30133036e-02 8.28999653e-02 8.27869400e-02 8.26865509e-02 8.26108158e-02 8.25935155e-02 8.25875625e-02 8.25775713e-02 8.25675800e-02 8.25575963e-02 8.25476125e-02 8.25376287e-02 8.25276524e-02 8.25176761e-02 8.25077072e-02 8.24977309e-02 8.24877620e-02 8.24778005e-02 8.24678317e-02 8.24578702e-02 8.24479088e-02 8.24379548e-02 8.24280009e-02 8.24180469e-02 8.24081004e-02 8.23981538e-02 8.23882073e-02 8.23782608e-02 8.23683217e-02 8.23583901e-02 8.23484510e-02 8.23385194e-02 8.23285878e-02 8.23186561e-02 8.23087320e-02 8.22988078e-02 8.22888911e-02 8.22789744e-02 8.22690576e-02 8.22591409e-02 8.22492316e-02 8.22393224e-02 8.22294131e-02 8.22195113e-02 8.22096094e-02 8.21997076e-02 8.21898133e-02 8.21799189e-02 8.21700245e-02 8.21601376e-02 8.21502507e-02 8.21403638e-02 8.21304768e-02 8.21205974e-02 8.21107179e-02 8.21008459e-02 8.20909739e-02 8.20811018e-02 8.20712298e-02 8.20613652e-02 8.20515007e-02 8.20416436e-02 8.20317864e-02 8.20219517e-02 8.20134133e-02 8.20048824e-02 8.19963440e-02 8.19878131e-02 8.19792822e-02 8.19707587e-02 8.19622353e-02 8.19537118e-02 8.19451883e-02 8.19366649e-02 8.19281489e-02 8.19196329e-02 8.19020793e-02 8.18996653e-02 8.19084570e-02 8.19172561e-02 8.19260553e-02 8.19348544e-02 8.19436610e-02 8.19524601e-02 8.19612667e-02 8.19700733e-02 8.19788873e-02 8.19876939e-02 8.19965079e-02 8.20053294e-02 8.20141435e-02 8.20229650e-02 8.20317864e-02 8.20406079e-02 8.20494294e-02 8.20582584e-02 8.20670873e-02 8.20759162e-02 8.20847526e-02 8.20935816e-02 8.21024179e-02 8.21112618e-02 8.21200982e-02 8.21289420e-02 8.21377859e-02 8.21466297e-02 8.21554810e-02 8.21643248e-02 8.21731761e-02 8.21820349e-02 8.21908861e-02 8.21997449e-02 8.22086036e-02 8.22174624e-02 8.22299197e-02 8.22570175e-02 8.22841302e-02 8.23112652e-02 8.23384151e-02 8.23655874e-02 8.23927745e-02 8.24199840e-02 8.24472085e-02 8.24744478e-02 8.25017095e-02 8.25289860e-02 8.25562850e-02 8.25835988e-02 8.26109275e-02 8.26382786e-02 8.26656520e-02 8.26930329e-02 8.27232003e-02 8.27571675e-02 8.27911645e-02 8.28251913e-02 8.28592479e-02 8.28933343e-02 8.29274431e-02 8.29615816e-02 8.29957500e-02 8.30299482e-02 8.30641687e-02 8.30984190e-02 8.31326991e-02 8.31670091e-02 8.32013488e-02 8.32357109e-02 8.32701027e-02 8.33045319e-02 8.33389759e-02 8.33734572e-02 8.34079683e-02 8.34425017e-02 8.34770650e-02 8.35116580e-02 8.35462809e-02 8.35809335e-02 8.36156085e-02 8.36503208e-02 8.36850554e-02 8.37198198e-02 8.37546214e-02 8.37894455e-02 8.38242918e-02 8.38591754e-02 8.38940889e-02 8.39290246e-02 8.39639977e-02 8.39989930e-02 8.40340257e-02 8.40690807e-02 8.41041654e-02 8.41392800e-02 8.41744244e-02 8.42095986e-02 8.42448026e-02 8.42800364e-02 8.43153000e-02 8.43505859e-02 8.43859091e-02 8.44277218e-02 8.44741091e-02 8.45205411e-02 8.45670328e-02 8.46135691e-02 8.46601650e-02 8.47068056e-02 8.47534984e-02 8.48002434e-02 8.48470405e-02 8.48938897e-02 8.49407837e-02 8.49877372e-02 8.50347430e-02 8.50818008e-02 8.51341635e-02 8.52276087e-02 8.53212550e-02 8.54151100e-02 8.55091736e-02 8.56034458e-02 8.57072771e-02 8.58192369e-02 8.59314948e-02 8.60440433e-02 8.61568898e-02 8.62700269e-02 8.63834620e-02 8.64972025e-02 8.66112411e-02 8.67255777e-02 8.68402198e-02 8.69551599e-02 8.70704055e-02 8.71859640e-02 8.73018205e-02 8.74179900e-02 8.75344723e-02 8.76512602e-02 8.77683684e-02 8.78857821e-02 8.80035087e-02 8.81215557e-02 8.82399157e-02 8.83586034e-02 8.84776041e-02 8.85969251e-02 8.87165666e-02 8.88365358e-02 8.89568254e-02 8.90774503e-02 8.91983956e-02 8.93196687e-02 8.94412771e-02 8.95632133e-02 8.96854848e-02 -1. -1. -1. -1. -1. -1. -1.
    -1. -1. -1. -1. -1. -1. -1. -1. -1. -1. -1. -1. -1. -1. -1. -1. -1. -1. -1. -1. -1. -1. -1. -1. -1. -1. -1. -1. -1. -1. -1. -1. -1. -1. -1. -1. -1. -1. -1. -1. -1. -1. -1. -1. -1. -1. -1. -1. -1. -1. -1. -1. -1. -1. -1. -1. -1. -1. -1. -1. -1. -1. -1. -1. -1. -1. -1. -1. -1. -1. -1. -1. -1. -1. -1. -1. -1. -1. -1. 9.01342258e-02 8.90762284e-02 8.80427733e-02 8.70330259e-02 8.64233896e-02 8.61589313e-02 8.58960822e-02 8.56348351e-02 8.53751749e-02 8.51289481e-02 8.50097686e-02 8.48909244e-02 8.47724080e-02 8.46542269e-02 8.45363662e-02 8.44188407e-02 8.43016431e-02 8.41847658e-02 8.40682164e-02 8.39519799e-02 8.38360712e-02 8.37204829e-02 8.36052150e-02 8.34902599e-02 8.33756253e-02 8.32612962e-02 8.31472874e-02 8.30335915e-02 8.29202011e-02 8.28071237e-02 8.26943517e-02 8.25936124e-02 8.25835988e-02 8.25736076e-02 8.25636163e-02 8.25536326e-02 8.25436488e-02 8.25336725e-02 8.25236961e-02 8.25137198e-02 8.25037435e-02 8.24937746e-02 8.24838057e-02 8.24738443e-02 8.24643523e-02 8.24557245e-02 8.24470967e-02 8.24384689e-02 8.24298486e-02 8.24212283e-02 8.24126080e-02 8.24039876e-02 8.23953748e-02 8.23867545e-02 8.23781490e-02 8.23695362e-02 8.23609233e-02 8.23523179e-02 8.23437124e-02 8.23351070e-02 8.23265091e-02 8.23179111e-02 8.23093131e-02 8.23007151e-02 8.22921172e-02 8.22835267e-02 8.22749361e-02 8.22663456e-02 8.22577626e-02 8.22491720e-02 8.22405890e-02 8.22320059e-02 8.22234303e-02 8.22148547e-02 8.22062716e-02 8.21977034e-02 8.21891278e-02 8.21805522e-02 8.21719840e-02 8.21634158e-02 8.21548551e-02 8.21462870e-02 8.21377262e-02 8.21291655e-02 8.21206048e-02 8.21120515e-02 8.21034983e-02 8.20949450e-02 8.20863917e-02 8.20778385e-02 8.20692927e-02 8.20607468e-02 8.20522010e-02 8.20436627e-02 8.20351169e-02 8.20265785e-02 8.20180401e-02 8.20095092e-02 8.20009708e-02 8.19924399e-02 8.19839090e-02 8.19753855e-02 8.19361806e-02 8.18956345e-02 8.18907320e-02 8.18966851e-02 8.19052979e-02 8.19140896e-02 8.19228888e-02 8.19316879e-02 8.19404945e-02 8.19492936e-02 8.19581002e-02 8.19669068e-02 8.19757134e-02 8.19845274e-02 8.19933414e-02 8.20021555e-02 8.20109695e-02 8.20197910e-02 8.20286125e-02 8.20374340e-02 8.20462555e-02 8.20550844e-02 8.20639133e-02 8.20727423e-02 8.20815712e-02 8.20904076e-02 8.20992440e-02 8.21080804e-02 8.21169168e-02 8.21257606e-02 8.21346045e-02 8.21434483e-02 8.21522921e-02 8.21611434e-02 8.21699947e-02 8.21788460e-02 8.21877047e-02 8.21965560e-02 8.22054148e-02 8.22142810e-02 8.22368264e-02 8.22639316e-02 8.22910517e-02 8.23181868e-02 8.23453441e-02 8.23725238e-02 8.23997110e-02 8.24269280e-02 8.24541524e-02 8.24813992e-02 8.25086683e-02 8.25359449e-02 8.25632513e-02 8.25905651e-02 8.26179013e-02 8.26452598e-02 8.26726332e-02 8.27030167e-02 8.27369690e-02 8.27709511e-02 8.28049630e-02 8.28390047e-02 8.28730687e-02 8.29071626e-02 8.29412863e-02 8.29754323e-02 8.30096155e-02 8.30438212e-02 8.30780566e-02 8.31123218e-02 8.31466094e-02 8.31809342e-02 8.32152814e-02 8.32496583e-02 8.32840651e-02 8.33184943e-02 8.33529606e-02 8.33874494e-02 8.34219679e-02 8.34565163e-02 8.34910944e-02 8.35256949e-02 8.35603327e-02 8.35949928e-02 8.36296827e-02 8.36644024e-02 8.36991519e-02 8.37339312e-02 8.37687403e-02 8.38035718e-02 8.38384405e-02 8.38733315e-02 8.39082524e-02 8.39432031e-02 8.39781836e-02 8.40131938e-02 8.40482339e-02 8.40833038e-02 8.41184035e-02 8.41535255e-02 8.41886848e-02 8.42238739e-02 8.42590854e-02 8.42943341e-02 8.43296051e-02 8.43753144e-02 8.44216421e-02 8.44680220e-02 8.45144540e-02 8.45609382e-02 8.46074671e-02 8.46540555e-02 8.47006887e-02 8.47473741e-02 8.47941115e-02 8.48409012e-02 8.48877430e-02 8.49346370e-02 8.49815831e-02 8.50285813e-02 8.50756243e-02 8.51227269e-02 8.52107480e-02 8.53043646e-02 8.53981823e-02 8.54922011e-02 8.55864361e-02 8.56808722e-02 8.57882872e-02 8.59004632e-02 8.60129297e-02 8.61256942e-02 8.62387493e-02 8.63521099e-02 8.64657611e-02 8.65797177e-02 8.66939723e-02 8.68085250e-02 8.69233906e-02 8.70385543e-02 8.71540233e-02 8.72697979e-02 8.73858780e-02 8.75022784e-02 8.76189768e-02 8.77359957e-02 8.78533199e-02 8.79709646e-02 8.80889222e-02 8.82072002e-02 8.83257911e-02 8.84447098e-02 8.85639414e-02 8.86834934e-02 8.88033733e-02 8.89235735e-02 8.90441015e-02 8.91649574e-02 8.92861411e-02 8.94076601e-02 8.95295069e-02 8.98409709e-02 -1. -1. -1. -1. -1. -1. -1.
    -1. -1. -1. -1. -1. -1. -1. -1. -1. -1. -1. -1. -1. -1. -1. -1. -1. -1. -1. -1. -1. -1. -1. -1. -1. -1. -1. -1. -1. -1. -1. -1. -1. -1. -1. -1. -1. -1. -1. -1. -1. -1. -1. -1. -1. -1. -1. -1. -1. -1. -1. -1. -1. -1. -1. -1. -1. -1. -1. -1. -1. -1. -1. -1. -1. -1. -1. -1. -1. -1. -1. -1. -1. -1. -1. -1. -1. -1. -1. 9.00723338e-02 8.90157744e-02 8.79837200e-02 8.69753212e-02 8.64620358e-02 8.61973390e-02 8.59342590e-02 8.56727809e-02 8.54128823e-02 8.51545632e-02 8.50310400e-02 8.49121362e-02 8.47935677e-02 8.46753195e-02 8.45574066e-02 8.44398215e-02 8.43225643e-02 8.42056274e-02 8.40890184e-02 8.39727297e-02 8.38567689e-02 8.37411210e-02 8.36257935e-02 8.35107788e-02 8.33960846e-02 8.32817107e-02 8.31676424e-02 8.30538869e-02 8.29404444e-02 8.28273073e-02 8.27144831e-02 8.26246738e-02 8.26160088e-02 8.26073512e-02 8.25986937e-02 8.25900361e-02 8.25813785e-02 8.25727284e-02 8.25640783e-02 8.25554281e-02 8.25467780e-02 8.25381353e-02 8.25294927e-02 8.25208500e-02 8.25122073e-02 8.25035647e-02 8.24949294e-02 8.24862942e-02 8.24776664e-02 8.24690312e-02 8.24604034e-02 8.24517757e-02 8.24431479e-02 8.24345276e-02 8.24258998e-02 8.24172795e-02 8.24086592e-02 8.24000463e-02 8.23914334e-02 8.23828131e-02 8.23742077e-02 8.23655948e-02 8.23569894e-02 8.23483840e-02 8.23397785e-02 8.23311731e-02 8.23225752e-02 8.23139772e-02 8.23053792e-02 8.22967812e-02 8.22881907e-02 8.22795928e-02 8.22710097e-02 8.22624192e-02 8.22538286e-02 8.22452456e-02 8.22366625e-02 8.22280794e-02 8.22195038e-02 8.22109282e-02 8.22023526e-02 8.21937770e-02 8.21852013e-02 8.21766332e-02 8.21680650e-02 8.21594968e-02 8.21509361e-02 8.21423680e-02 8.21338072e-02 8.21252465e-02 8.21166933e-02 8.21081325e-02 8.20995793e-02 8.20910260e-02 8.20824802e-02 8.20739269e-02 8.20653811e-02 8.20568353e-02 8.20482969e-02 8.20397511e-02 8.20180848e-02 8.19703117e-02 8.19297284e-02 8.18891898e-02 8.18829015e-02 8.18888545e-02 8.18948150e-02 8.19021314e-02 8.19109306e-02 8.19197223e-02 8.19285214e-02 8.19373280e-02 8.19461271e-02 8.19549337e-02 8.19637403e-02 8.19725469e-02 8.19813609e-02 8.19901675e-02 8.19989815e-02 8.20078030e-02 8.20166171e-02 8.20254385e-02 8.20342600e-02 8.20430815e-02 8.20519105e-02 8.20607319e-02 8.20695609e-02 8.20783973e-02 8.20872262e-02 8.20960626e-02 8.21048990e-02 8.21137354e-02 8.21225792e-02 8.21314231e-02 8.21402669e-02 8.21491107e-02 8.21579620e-02 8.21668133e-02 8.21756646e-02 8.21845159e-02 8.21933746e-02 8.22022334e-02 8.22166502e-02 8.22437406e-02 8.22708458e-02 8.22979733e-02 8.23251158e-02 8.23522732e-02 8.23794529e-02 8.24066550e-02 8.24338719e-02 8.24611038e-02 8.24883506e-02 8.25156197e-02 8.25429112e-02 8.25702175e-02 8.25975388e-02 8.26248825e-02 8.26522410e-02 8.26828405e-02 8.27167854e-02 8.27507451e-02 8.27847421e-02 8.28187615e-02 8.28528106e-02 8.28868896e-02 8.29209983e-02 8.29551294e-02 8.29892904e-02 8.30234811e-02 8.30577016e-02 8.30919519e-02 8.31262246e-02 8.31605271e-02 8.31948593e-02 8.32292214e-02 8.32636058e-02 8.32980201e-02 8.33324715e-02 8.33669379e-02 8.34014416e-02 8.34359750e-02 8.34705308e-02 8.35051239e-02 8.35397393e-02 8.35743845e-02 8.36090595e-02 8.36437643e-02 8.36784914e-02 8.37132558e-02 8.37480426e-02 8.37828591e-02 8.38177055e-02 8.38525817e-02 8.38874876e-02 8.39224234e-02 8.39573890e-02 8.39923769e-02 8.40274021e-02 8.40624496e-02 8.40975344e-02 8.41326416e-02 8.41677859e-02 8.42029527e-02 8.42381492e-02 8.42767581e-02 8.43229741e-02 8.43692496e-02 8.44155699e-02 8.44619423e-02 8.45083669e-02 8.45548436e-02 8.46013650e-02 8.46479461e-02 8.46945718e-02 8.47412497e-02 8.47879872e-02 8.48347694e-02 8.48816037e-02 8.49284902e-02 8.49754289e-02 8.50224197e-02 8.50694552e-02 8.51165503e-02 8.51938948e-02 8.52874741e-02 8.53812546e-02 8.54752362e-02 8.55694339e-02 8.56638327e-02 8.57584476e-02 8.58694538e-02 8.59818459e-02 8.60945210e-02 8.62075016e-02 8.63207728e-02 8.64343494e-02 8.65482166e-02 8.66623893e-02 8.67768601e-02 8.68916363e-02 8.70067179e-02 8.71221051e-02 8.72377977e-02 8.73537958e-02 8.74700993e-02 8.75867158e-02 8.77036452e-02 8.78208876e-02 8.79384503e-02 8.80563185e-02 8.81745070e-02 8.82930085e-02 8.84118378e-02 8.85309801e-02 8.86504427e-02 8.87702331e-02 8.88903514e-02 8.90107900e-02 8.91315490e-02 8.92526433e-02 8.93740654e-02 8.94958228e-02 9.00430903e-02 -1. -1. -1. -1. -1. -1. -1.
    -1. -1. -1. -1. -1. -1. -1. -1. -1. -1. -1. -1. -1. -1. -1. -1. -1. -1. -1. -1. -1. -1. -1. -1. -1. -1. -1. -1. -1. -1. -1. -1. -1. -1. -1. -1. -1. -1. -1. -1. -1. -1. -1. -1. -1. -1. -1. -1. -1. -1. -1. -1. -1. -1. -1. -1. -1. -1. -1. -1. -1. -1. -1. -1. -1. -1. -1. -1. -1. -1. -1. -1. -1. -1. -1. -1. -1. -1. -1. 9.00105238e-02 8.89554098e-02 8.79247412e-02 8.69176909e-02 8.65007117e-02 8.62357765e-02 8.59724656e-02 8.57107490e-02 8.54506269e-02 8.51920769e-02 8.50523263e-02 8.49333629e-02 8.48147348e-02 8.46964270e-02 8.45784545e-02 8.44608098e-02 8.43434930e-02 8.42265040e-02 8.41098353e-02 8.39934945e-02 8.38774666e-02 8.37617666e-02 8.36463794e-02 8.35313126e-02 8.34165588e-02 8.33021253e-02 8.31880048e-02 8.30741972e-02 8.29606950e-02 8.28475058e-02 8.27346221e-02 8.26727152e-02 8.26640427e-02 8.26553702e-02 8.26467052e-02 8.26380402e-02 8.26293752e-02 8.26207101e-02 8.26120451e-02 8.26033875e-02 8.25947300e-02 8.25860724e-02 8.25774223e-02 8.25687721e-02 8.25601220e-02 8.25514719e-02 8.25428218e-02 8.25341791e-02 8.25255364e-02 8.25168937e-02 8.25082511e-02 8.24996158e-02 8.24909806e-02 8.24823454e-02 8.24737102e-02 8.24650824e-02 8.24564546e-02 8.24478269e-02 8.24391991e-02 8.24305788e-02 8.24219584e-02 8.24133381e-02 8.24047178e-02 8.23961049e-02 8.23874846e-02 8.23788792e-02 8.23702663e-02 8.23616534e-02 8.23530480e-02 8.23444426e-02 8.23358372e-02 8.23272392e-02 8.23186412e-02 8.23100433e-02 8.23014453e-02 8.22928473e-02 8.22842568e-02 8.22756663e-02 8.22670758e-02 8.22584853e-02 8.22499022e-02 8.22413191e-02 8.22327361e-02 8.22241604e-02 8.22155774e-02 8.22070017e-02 8.21984261e-02 8.21898505e-02 8.21812823e-02 8.21727142e-02 8.21641460e-02 8.21555778e-02 8.21470171e-02 8.21384490e-02 8.21298957e-02 8.21213350e-02 8.21127743e-02 8.21042210e-02 8.20956677e-02 8.20451230e-02 8.20044726e-02 8.19638595e-02 8.19232836e-02 8.18827525e-02 8.18750709e-02 8.18810239e-02 8.18869844e-02 8.18929374e-02 8.18989724e-02 8.19077641e-02 8.19165632e-02 8.19253623e-02 8.19341615e-02 8.19429606e-02 8.19517672e-02 8.19605738e-02 8.19693804e-02 8.19781870e-02 8.19870010e-02 8.19958150e-02 8.20046291e-02 8.20134431e-02 8.20222646e-02 8.20310861e-02 8.20399076e-02 8.20487365e-02 8.20575580e-02 8.20663869e-02 8.20752159e-02 8.20840523e-02 8.20928887e-02 8.21017250e-02 8.21105614e-02 8.21193978e-02 8.21282417e-02 8.21370855e-02 8.21459293e-02 8.21547806e-02 8.21636245e-02 8.21724758e-02 8.21813345e-02 8.21901858e-02 8.21990445e-02 8.22235569e-02 8.22506547e-02 8.22777599e-02 8.23048949e-02 8.23320448e-02 8.23592097e-02 8.23863894e-02 8.24135914e-02 8.24408159e-02 8.24680552e-02 8.24953094e-02 8.25225785e-02 8.25498700e-02 8.25771838e-02 8.26045126e-02 8.26318562e-02 8.26626793e-02 8.26966017e-02 8.27305540e-02 8.27645287e-02 8.27985331e-02 8.28325674e-02 8.28666314e-02 8.29007179e-02 8.29348341e-02 8.29689801e-02 8.30031559e-02 8.30373541e-02 8.30715895e-02 8.31058472e-02 8.31401348e-02 8.31744447e-02 8.32087919e-02 8.32431614e-02 8.32775608e-02 8.33119899e-02 8.33464414e-02 8.33809301e-02 8.34154412e-02 8.34499896e-02 8.34845603e-02 8.35191533e-02 8.35537836e-02 8.35884437e-02 8.36231261e-02 8.36578384e-02 8.36925879e-02 8.37273598e-02 8.37621614e-02 8.37969854e-02 8.38318467e-02 8.38667378e-02 8.39016512e-02 8.39366019e-02 8.39715749e-02 8.40065777e-02 8.40416104e-02 8.40766728e-02 8.41117650e-02 8.41468871e-02 8.41820389e-02 8.42245370e-02 8.42707008e-02 8.43169168e-02 8.43631774e-02 8.44094977e-02 8.44558626e-02 8.45022798e-02 8.45487490e-02 8.45952630e-02 8.46418366e-02 8.46884549e-02 8.47351328e-02 8.47818553e-02 8.48286301e-02 8.48754570e-02 8.49223360e-02 8.49692747e-02 8.50162581e-02 8.50632861e-02 8.51103738e-02 8.51770490e-02 8.52705911e-02 8.53643343e-02 8.54582787e-02 8.55524391e-02 8.56468007e-02 8.57413709e-02 8.58384743e-02 8.59507769e-02 8.60633776e-02 8.61762688e-02 8.62894654e-02 8.64029527e-02 8.65167379e-02 8.66308287e-02 8.67452174e-02 8.68599117e-02 8.69749039e-02 8.70902091e-02 8.72058123e-02 8.73217285e-02 8.74379501e-02 8.75544846e-02 8.76713246e-02 8.77884850e-02 8.79059508e-02 8.80237371e-02 8.81418362e-02 8.82602558e-02 8.83789882e-02 8.84980485e-02 8.86174217e-02 8.87371227e-02 8.88571441e-02 8.89774933e-02 8.90981704e-02 8.92191753e-02 8.93405005e-02 8.94621685e-02 9.02461186e-02 -1. -1. -1. -1. -1. -1. -1.
    -1. -1. -1. -1. -1. -1. -1. -1. -1. -1. -1. -1. -1. -1. -1. -1. -1. -1. -1. -1. -1. -1. -1. -1. -1. -1. -1. -1. -1. -1. -1. -1. -1. -1. -1. -1. -1. -1. -1. -1. -1. -1. -1. -1. -1. -1. -1. -1. -1. -1. -1. -1. -1. -1. -1. -1. -1. -1. -1. -1. -1. -1. -1. -1. -1. -1. -1. -1. -1. -1. -1. -1. -1. -1. -1. -1. -1. -1. -1. 8.99488032e-02 8.88951272e-02 8.78658444e-02 8.68601352e-02 8.65394175e-02 8.62742513e-02 8.60107020e-02 8.57487544e-02 8.54884014e-02 8.52296278e-02 8.50736275e-02 8.49546045e-02 8.48359093e-02 8.47175494e-02 8.45995173e-02 8.44818130e-02 8.43644366e-02 8.42473879e-02 8.41306672e-02 8.40142593e-02 8.38981792e-02 8.37824196e-02 8.36669803e-02 8.35518539e-02 8.34370479e-02 8.33225548e-02 8.32083747e-02 8.30945075e-02 8.29809532e-02 8.28677118e-02 8.27547759e-02 8.27208161e-02 8.27121288e-02 8.27034488e-02 8.26947764e-02 8.26860964e-02 8.26774240e-02 8.26687440e-02 8.26600790e-02 8.26514065e-02 8.26427415e-02 8.26340765e-02 8.26254115e-02 8.26167464e-02 8.26080889e-02 8.25994238e-02 8.25907663e-02 8.25821161e-02 8.25734586e-02 8.25648084e-02 8.25561583e-02 8.25475156e-02 8.25388655e-02 8.25302228e-02 8.25215802e-02 8.25129375e-02 8.25043023e-02 8.24956670e-02 8.24870318e-02 8.24783966e-02 8.24697614e-02 8.24611336e-02 8.24525058e-02 8.24438781e-02 8.24352577e-02 8.24266300e-02 8.24180096e-02 8.24093893e-02 8.24007764e-02 8.23921636e-02 8.23835433e-02 8.23749378e-02 8.23663250e-02 8.23577195e-02 8.23491141e-02 8.23405087e-02 8.23319033e-02 8.23233053e-02 8.23146999e-02 8.23061094e-02 8.22975114e-02 8.22889134e-02 8.22803229e-02 8.22717324e-02 8.22631493e-02 8.22545588e-02 8.22459757e-02 8.22373927e-02 8.22288096e-02 8.22202340e-02 8.22116509e-02 8.22030753e-02 8.21944997e-02 8.21859315e-02 8.21773633e-02 8.21687952e-02 8.21602270e-02 8.21392387e-02 8.20793435e-02 8.20386559e-02 8.19980130e-02 8.19574073e-02 8.19168389e-02 8.18763152e-02 8.18672404e-02 8.18731934e-02 8.18791538e-02 8.18851069e-02 8.18910673e-02 8.18970203e-02 8.19046050e-02 8.19133967e-02 8.19221959e-02 8.19309950e-02 8.19397941e-02 8.19486007e-02 8.19574073e-02 8.19662139e-02 8.19750205e-02 8.19838271e-02 8.19926411e-02 8.20014551e-02 8.20102766e-02 8.20190907e-02 8.20279121e-02 8.20367336e-02 8.20455626e-02 8.20543841e-02 8.20632130e-02 8.20720419e-02 8.20808709e-02 8.20897073e-02 8.20985436e-02 8.21073800e-02 8.21162164e-02 8.21250603e-02 8.21339041e-02 8.21427479e-02 8.21515992e-02 8.21604431e-02 8.21692944e-02 8.21781456e-02 8.21870044e-02 8.22033882e-02 8.22304636e-02 8.22575688e-02 8.22846815e-02 8.23118165e-02 8.23389664e-02 8.23661387e-02 8.23933259e-02 8.24205354e-02 8.24477598e-02 8.24749991e-02 8.25022608e-02 8.25295374e-02 8.25568363e-02 8.25841501e-02 8.26114863e-02 8.26425329e-02 8.26764330e-02 8.27103704e-02 8.27443302e-02 8.27783197e-02 8.28123316e-02 8.28463808e-02 8.28804523e-02 8.29145536e-02 8.29486772e-02 8.29828382e-02 8.30170214e-02 8.30512345e-02 8.30854774e-02 8.31197426e-02 8.31540450e-02 8.31883699e-02 8.32227245e-02 8.32571089e-02 8.32915157e-02 8.33259597e-02 8.33604261e-02 8.33949223e-02 8.34294483e-02 8.34640041e-02 8.34985822e-02 8.35331976e-02 8.35678354e-02 8.36025029e-02 8.36372003e-02 8.36719275e-02 8.37066844e-02 8.37414637e-02 8.37762803e-02 8.38111192e-02 8.38459954e-02 8.38808939e-02 8.39158222e-02 8.39507803e-02 8.39857683e-02 8.40207860e-02 8.40558261e-02 8.40909034e-02 8.41263309e-02 8.41723830e-02 8.42184946e-02 8.42646509e-02 8.43108520e-02 8.43571126e-02 8.44034255e-02 8.44497830e-02 8.44961926e-02 8.45426545e-02 8.45891684e-02 8.46357271e-02 8.46823454e-02 8.47290084e-02 8.47757310e-02 8.48224983e-02 8.48693177e-02 8.49161893e-02 8.49631205e-02 8.50100964e-02 8.50571245e-02 8.51042047e-02 8.51602107e-02 8.52537155e-02 8.53474215e-02 8.54413286e-02 8.55354518e-02 8.56297761e-02 8.57243091e-02 8.58190507e-02 8.59197304e-02 8.60322490e-02 8.61450657e-02 8.62581730e-02 8.63715857e-02 8.64852890e-02 8.65992904e-02 8.67135972e-02 8.68282095e-02 8.69431198e-02 8.70583355e-02 8.71738568e-02 8.72896835e-02 8.74058232e-02 8.75222683e-02 8.76390263e-02 8.77560973e-02 8.78734812e-02 8.79911780e-02 8.81091878e-02 8.82275179e-02 8.83461684e-02 8.84651318e-02 8.85844231e-02 8.87040347e-02 8.88239667e-02 8.89442265e-02 8.90648142e-02 8.91857222e-02 8.93069655e-02 8.94285366e-02 9.04500633e-02 -1. -1. -1. -1. -1. -1. -1.
    -1. -1. -1. -1. -1. -1. -1. -1. -1. -1. -1. -1. -1. -1. -1. -1. -1. -1. -1. -1. -1. -1. -1. -1. -1. -1. -1. -1. -1. -1. -1. -1. -1. -1. -1. -1. -1. -1. -1. -1. -1. -1. -1. -1. -1. -1. -1. -1. -1. -1. -1. -1. -1. -1. -1. -1. -1. -1. -1. -1. -1. -1. -1. -1. -1. -1. -1. -1. -1. -1. -1. -1. -1. -1. -1. -1. -1. -1. 9.09646302e-02 8.98871645e-02 8.88349190e-02 8.78070295e-02 8.68452117e-02 8.65781680e-02 8.63127634e-02 8.60489756e-02 8.57867971e-02 8.55262130e-02 8.52672085e-02 8.50949362e-02 8.49758461e-02 8.48570988e-02 8.47386792e-02 8.46205875e-02 8.45028237e-02 8.43853951e-02 8.42682868e-02 8.41514990e-02 8.40350389e-02 8.39189067e-02 8.38030875e-02 8.36875886e-02 8.35724100e-02 8.34575444e-02 8.33429918e-02 8.32287595e-02 8.31148401e-02 8.30012262e-02 8.28879252e-02 8.27776641e-02 8.27689692e-02 8.27602744e-02 8.27515870e-02 8.27428997e-02 8.27342123e-02 8.27255249e-02 8.27168450e-02 8.27081576e-02 8.26994777e-02 8.26908052e-02 8.26821253e-02 8.26734528e-02 8.26647803e-02 8.26561078e-02 8.26474428e-02 8.26387703e-02 8.26301053e-02 8.26214477e-02 8.26127827e-02 8.26041251e-02 8.25954676e-02 8.25868100e-02 8.25781524e-02 8.25695023e-02 8.25608522e-02 8.25522020e-02 8.25435594e-02 8.25349092e-02 8.25262666e-02 8.25176239e-02 8.25089887e-02 8.25003460e-02 8.24917108e-02 8.24830756e-02 8.24744478e-02 8.24658126e-02 8.24571848e-02 8.24485570e-02 8.24399292e-02 8.24313089e-02 8.24226886e-02 8.24140683e-02 8.24054480e-02 8.23968351e-02 8.23882148e-02 8.23796019e-02 8.23709965e-02 8.23623836e-02 8.23537782e-02 8.23451728e-02 8.23365673e-02 8.23279694e-02 8.23193640e-02 8.23107660e-02 8.23021755e-02 8.22935775e-02 8.22849870e-02 8.22763965e-02 8.22678059e-02 8.22592154e-02 8.22506323e-02 8.22420493e-02 8.22334662e-02 8.22248831e-02 8.22163075e-02 8.21654797e-02 8.21135938e-02 8.20728689e-02 8.20321888e-02 8.19915533e-02 8.19509551e-02 8.19103941e-02 8.18698779e-02 8.18594173e-02 8.18653703e-02 8.18713233e-02 8.18772763e-02 8.18832368e-02 8.18891898e-02 8.18951502e-02 8.19014385e-02 8.19102302e-02 8.19190294e-02 8.19278285e-02 8.19366276e-02 8.19454342e-02 8.19542333e-02 8.19630399e-02 8.19718540e-02 8.19806606e-02 8.19894746e-02 8.19982886e-02 8.20071027e-02 8.20159167e-02 8.20247382e-02 8.20335597e-02 8.20423812e-02 8.20512101e-02 8.20600390e-02 8.20688680e-02 8.20776969e-02 8.20865333e-02 8.20953622e-02 8.21041986e-02 8.21130425e-02 8.21218789e-02 8.21307227e-02 8.21395665e-02 8.21484104e-02 8.21572617e-02 8.21661130e-02 8.21749642e-02 8.21838155e-02 8.22102875e-02 8.22373778e-02 8.22644830e-02 8.22916031e-02 8.23187381e-02 8.23458955e-02 8.23730752e-02 8.24002698e-02 8.24274793e-02 8.24547037e-02 8.24819505e-02 8.25092196e-02 8.25365037e-02 8.25638026e-02 8.25911239e-02 8.26223865e-02 8.26562792e-02 8.26901942e-02 8.27241391e-02 8.27581063e-02 8.27921107e-02 8.28261375e-02 8.28601941e-02 8.28942731e-02 8.29283893e-02 8.29625279e-02 8.29966962e-02 8.30308944e-02 8.30651149e-02 8.30993727e-02 8.31336528e-02 8.31679627e-02 8.32022950e-02 8.32366645e-02 8.32710564e-02 8.33054781e-02 8.33399296e-02 8.33744109e-02 8.34089220e-02 8.34434554e-02 8.34780261e-02 8.35126191e-02 8.35472420e-02 8.35818946e-02 8.36165696e-02 8.36512819e-02 8.36860165e-02 8.37207884e-02 8.37555826e-02 8.37904066e-02 8.38252604e-02 8.38601440e-02 8.38950574e-02 8.39299932e-02 8.39649662e-02 8.39999616e-02 8.40349942e-02 8.40742961e-02 8.41202959e-02 8.41663480e-02 8.42124447e-02 8.42585936e-02 8.43047947e-02 8.43510479e-02 8.43973458e-02 8.44437033e-02 8.44901055e-02 8.45365599e-02 8.45830664e-02 8.46296251e-02 8.46762285e-02 8.47228914e-02 8.47696066e-02 8.48163664e-02 8.48631784e-02 8.49100426e-02 8.49569663e-02 8.50039348e-02 8.50509554e-02 8.50980282e-02 8.51451531e-02 8.52368400e-02 8.53305086e-02 8.54243860e-02 8.55184644e-02 8.56127590e-02 8.57072547e-02 8.58019590e-02 8.58968720e-02 8.60011503e-02 8.61138850e-02 8.62269104e-02 8.63402337e-02 8.64538550e-02 8.65677819e-02 8.66819993e-02 8.67965296e-02 8.69113579e-02 8.70264843e-02 8.71419236e-02 8.72576684e-02 8.73737186e-02 8.74900818e-02 8.76067504e-02 8.77237394e-02 8.78410339e-02 8.79586414e-02 8.80765691e-02 8.81948099e-02 8.83133709e-02 8.84322524e-02 8.85514468e-02 8.86709690e-02 8.87908116e-02 8.89109820e-02 8.90314803e-02 8.91522989e-02 8.92734528e-02 8.93949270e-02 9.06549320e-02 -1. -1. -1. -1. -1. -1. -1.
    -1. -1. -1. -1. -1. -1. -1. -1. -1. -1. -1. -1. -1. -1. -1. -1. -1. -1. -1. -1. -1. -1. -1. -1. -1. -1. -1. -1. -1. -1. -1. -1. -1. -1. -1. -1. -1. -1. -1. -1. -1. -1. -1. -1. -1. -1. -1. -1. -1. -1. -1. -1. -1. -1. -1. -1. -1. -1. -1. -1. -1. -1. -1. -1. -1. -1. -1. -1. -1. -1. -1. -1. -1. -1. -1. -1. -1. -1. 9.09015983e-02 8.98256078e-02 8.87748003e-02 8.77482891e-02 8.68842304e-02 8.66169482e-02 8.63513052e-02 8.60872865e-02 8.58248770e-02 8.55640620e-02 8.53048265e-02 8.51162523e-02 8.49971101e-02 8.48782957e-02 8.47598165e-02 8.46416727e-02 8.45238492e-02 8.44063535e-02 8.42891932e-02 8.41723531e-02 8.40558335e-02 8.39396343e-02 8.38237628e-02 8.37082043e-02 8.35929662e-02 8.34780484e-02 8.33634436e-02 8.32491517e-02 8.31351727e-02 8.30215067e-02 8.29081535e-02 8.28258842e-02 8.28171819e-02 8.28084797e-02 8.27997774e-02 8.27910751e-02 8.27823803e-02 8.27736855e-02 8.27649906e-02 8.27562958e-02 8.27476084e-02 8.27389210e-02 8.27302337e-02 8.27215537e-02 8.27128664e-02 8.27041864e-02 8.26955065e-02 8.26868340e-02 8.26781541e-02 8.26694816e-02 8.26608092e-02 8.26521441e-02 8.26434717e-02 8.26348066e-02 8.26261416e-02 8.26174840e-02 8.26088190e-02 8.26001614e-02 8.25915039e-02 8.25828463e-02 8.25741962e-02 8.25655460e-02 8.25568959e-02 8.25482458e-02 8.25396031e-02 8.25309530e-02 8.25223103e-02 8.25136751e-02 8.25050324e-02 8.24963972e-02 8.24877620e-02 8.24791268e-02 8.24704915e-02 8.24618638e-02 8.24532360e-02 8.24446082e-02 8.24359879e-02 8.24273601e-02 8.24187398e-02 8.24101269e-02 8.24015066e-02 8.23928937e-02 8.23842734e-02 8.23756680e-02 8.23670551e-02 8.23584497e-02 8.23498368e-02 8.23412389e-02 8.23326334e-02 8.23240280e-02 8.23154300e-02 8.23068321e-02 8.22982416e-02 8.22896436e-02 8.22810531e-02 8.22607577e-02 8.21917355e-02 8.21478739e-02 8.21071193e-02 8.20664018e-02 8.20257291e-02 8.19850937e-02 8.19445029e-02 8.19039494e-02 8.18634331e-02 8.18515942e-02 8.18575472e-02 8.18635002e-02 8.18694532e-02 8.18754062e-02 8.18813592e-02 8.18873197e-02 8.18932727e-02 8.18992332e-02 8.19070712e-02 8.19158629e-02 8.19246620e-02 8.19334611e-02 8.19422677e-02 8.19510669e-02 8.19598734e-02 8.19686800e-02 8.19774941e-02 8.19863006e-02 8.19951147e-02 8.20039287e-02 8.20127502e-02 8.20215642e-02 8.20303857e-02 8.20392072e-02 8.20480362e-02 8.20568651e-02 8.20656866e-02 8.20745230e-02 8.20833519e-02 8.20921883e-02 8.21010247e-02 8.21098611e-02 8.21186975e-02 8.21275413e-02 8.21363851e-02 8.21452290e-02 8.21540803e-02 8.21629316e-02 8.21717754e-02 8.21901262e-02 8.22172016e-02 8.22442845e-02 8.22713971e-02 8.22985247e-02 8.23256671e-02 8.23528245e-02 8.23800042e-02 8.24072063e-02 8.24344233e-02 8.24616551e-02 8.24889094e-02 8.25161785e-02 8.25434625e-02 8.25707689e-02 8.26022550e-02 8.26361254e-02 8.26700255e-02 8.27039555e-02 8.27379078e-02 8.27718973e-02 8.28059018e-02 8.28399435e-02 8.28740150e-02 8.29081088e-02 8.29422325e-02 8.29763785e-02 8.30105618e-02 8.30447674e-02 8.30790028e-02 8.31132680e-02 8.31475630e-02 8.31818804e-02 8.32162276e-02 8.32506120e-02 8.32850114e-02 8.33194479e-02 8.33539143e-02 8.33884031e-02 8.34229216e-02 8.34574699e-02 8.34920481e-02 8.35266560e-02 8.35612863e-02 8.35959539e-02 8.36306438e-02 8.36653635e-02 8.37001130e-02 8.37348923e-02 8.37697014e-02 8.38045403e-02 8.38394016e-02 8.38743001e-02 8.39092210e-02 8.39441717e-02 8.39791521e-02 8.40223357e-02 8.40682760e-02 8.41142684e-02 8.41603056e-02 8.42064023e-02 8.42525437e-02 8.42987373e-02 8.43449831e-02 8.43912810e-02 8.44376236e-02 8.44840184e-02 8.45304728e-02 8.45769718e-02 8.46235156e-02 8.46701190e-02 8.47167745e-02 8.47634748e-02 8.48102346e-02 8.48570392e-02 8.49039033e-02 8.49508122e-02 8.49977732e-02 8.50447863e-02 8.50918591e-02 8.51389766e-02 8.52199793e-02 8.53136107e-02 8.54074508e-02 8.55014920e-02 8.55957419e-02 8.56902003e-02 8.57848749e-02 8.58797505e-02 8.59748349e-02 8.60827193e-02 8.61956626e-02 8.63089114e-02 8.64224508e-02 8.65362883e-02 8.66504312e-02 8.67648721e-02 8.68796110e-02 8.69946629e-02 8.71100128e-02 8.72256756e-02 8.73416439e-02 8.74579176e-02 8.75745043e-02 8.76913965e-02 8.78086090e-02 8.79261345e-02 8.80439728e-02 8.81621242e-02 8.82805958e-02 8.83993879e-02 8.85185003e-02 8.86379331e-02 8.87576863e-02 8.88777673e-02 8.89981687e-02 8.91188979e-02 8.92399624e-02 8.93613473e-02 9.08607319e-02 -1. -1. -1. -1. -1. -1. -1.
    -1. -1. -1. -1. -1. -1. -1. -1. -1. -1. -1. -1. -1. -1. -1. -1. -1. -1. -1. -1. -1. -1. -1. -1. -1. -1. -1. -1. -1. -1. -1. -1. -1. -1. -1. -1. -1. -1. -1. -1. -1. -1. -1. -1. -1. -1. -1. -1. -1. -1. -1. -1. -1. -1. -1. -1. -1. -1. -1. -1. -1. -1. -1. -1. -1. -1. -1. -1. -1. -1. -1. -1. -1. -1. -1. -1. -1. -1. 9.08386484e-02 8.97641405e-02 8.87147561e-02 8.76896307e-02 8.69232863e-02 8.66557658e-02 8.63898769e-02 8.61256272e-02 8.58629793e-02 8.56019333e-02 8.53424743e-02 8.51375833e-02 8.50183740e-02 8.48995075e-02 8.47809687e-02 8.46627578e-02 8.45448822e-02 8.44273344e-02 8.43101069e-02 8.41932073e-02 8.40766355e-02 8.39603767e-02 8.38444456e-02 8.37288350e-02 8.36135447e-02 8.34985673e-02 8.33839029e-02 8.32695588e-02 8.31555203e-02 8.30418020e-02 8.29283893e-02 8.28741640e-02 8.28654468e-02 8.28567296e-02 8.28480199e-02 8.28393102e-02 8.28306079e-02 8.28218982e-02 8.28131959e-02 8.28044936e-02 8.27957913e-02 8.27870965e-02 8.27784017e-02 8.27697068e-02 8.27610120e-02 8.27523246e-02 8.27436373e-02 8.27349499e-02 8.27262625e-02 8.27175751e-02 8.27088952e-02 8.27002153e-02 8.26915354e-02 8.26828629e-02 8.26741904e-02 8.26655179e-02 8.26568455e-02 8.26481730e-02 8.26395079e-02 8.26308429e-02 8.26221779e-02 8.26135203e-02 8.26048553e-02 8.25961977e-02 8.25875401e-02 8.25788900e-02 8.25702325e-02 8.25615823e-02 8.25529397e-02 8.25442895e-02 8.25356469e-02 8.25269967e-02 8.25183615e-02 8.25097188e-02 8.25010836e-02 8.24924409e-02 8.24838057e-02 8.24751779e-02 8.24665427e-02 8.24579149e-02 8.24492872e-02 8.24406669e-02 8.24320391e-02 8.24234188e-02 8.24147984e-02 8.24061781e-02 8.23975652e-02 8.23889449e-02 8.23803321e-02 8.23717266e-02 8.23631138e-02 8.23545083e-02 8.23459029e-02 8.23372975e-02 8.22870731e-02 8.22230056e-02 8.21821764e-02 8.21413919e-02 8.21006447e-02 8.20599347e-02 8.20192695e-02 8.19786415e-02 8.19380507e-02 8.18975046e-02 8.18570033e-02 8.18437710e-02 8.18497166e-02 8.18556696e-02 8.18616226e-02 8.18675756e-02 8.18735287e-02 8.18794891e-02 8.18854421e-02 8.18914026e-02 8.18973556e-02 8.19039047e-02 8.19127038e-02 8.19214955e-02 8.19303021e-02 8.19391012e-02 8.19479004e-02 8.19567069e-02 8.19655135e-02 8.19743201e-02 8.19831342e-02 8.19919482e-02 8.20007622e-02 8.20095763e-02 8.20183977e-02 8.20272118e-02 8.20360407e-02 8.20448622e-02 8.20536837e-02 8.20625126e-02 8.20713416e-02 8.20801780e-02 8.20890069e-02 8.20978433e-02 8.21066797e-02 8.21155235e-02 8.21243599e-02 8.21332037e-02 8.21420476e-02 8.21508989e-02 8.21597427e-02 8.21699724e-02 8.21970254e-02 8.22241083e-02 8.22511986e-02 8.22783113e-02 8.23054463e-02 8.23325887e-02 8.23597610e-02 8.23869407e-02 8.24141428e-02 8.24413672e-02 8.24686065e-02 8.24958608e-02 8.25231373e-02 8.25504288e-02 8.25821310e-02 8.26159865e-02 8.26498717e-02 8.26837793e-02 8.27177241e-02 8.27516913e-02 8.27856809e-02 8.28197077e-02 8.28537568e-02 8.28878358e-02 8.29219446e-02 8.29560757e-02 8.29902366e-02 8.30244273e-02 8.30586478e-02 8.30928981e-02 8.31271708e-02 8.31614733e-02 8.31958055e-02 8.32301676e-02 8.32645595e-02 8.32989737e-02 8.33334178e-02 8.33678991e-02 8.34023952e-02 8.34369287e-02 8.34714919e-02 8.35060775e-02 8.35406929e-02 8.35753456e-02 8.36100206e-02 8.36447179e-02 8.36794525e-02 8.37142169e-02 8.37490037e-02 8.37838277e-02 8.38186741e-02 8.38535503e-02 8.38884562e-02 8.39245915e-02 8.39704275e-02 8.40163156e-02 8.40622485e-02 8.41082335e-02 8.41542706e-02 8.42003599e-02 8.42464939e-02 8.42926800e-02 8.43389183e-02 8.43852088e-02 8.44315439e-02 8.44779387e-02 8.45243782e-02 8.45708698e-02 8.46174136e-02 8.46640095e-02 8.47106576e-02 8.47573504e-02 8.48041028e-02 8.48509073e-02 8.48977566e-02 8.49446580e-02 8.49916190e-02 8.50386247e-02 8.50856826e-02 8.51328000e-02 8.52031186e-02 8.52967203e-02 8.53905156e-02 8.54845271e-02 8.55787396e-02 8.56731609e-02 8.57677907e-02 8.58626291e-02 8.59576836e-02 8.60529393e-02 8.61644447e-02 8.62776041e-02 8.63910615e-02 8.65048245e-02 8.66188779e-02 8.67332369e-02 8.68478939e-02 8.69628638e-02 8.70781317e-02 8.71937051e-02 8.73095840e-02 8.74257758e-02 8.75422731e-02 8.76590833e-02 8.77762064e-02 8.78936499e-02 8.80113989e-02 8.81294608e-02 8.82478505e-02 8.83665532e-02 8.84855762e-02 8.86049196e-02 8.87245834e-02 8.88445750e-02 8.89648870e-02 8.90855268e-02 8.92064944e-02 8.93277898e-02 9.10674706e-02 -1. -1. -1. -1. -1. -1. -1.
    -1. -1. -1. -1. -1. -1. -1. -1. -1. -1. -1. -1. -1. -1. -1. -1. -1. -1. -1. -1. -1. -1. -1. -1. -1. -1. -1. -1. -1. -1. -1. -1. -1. -1. -1. -1. -1. -1. -1. -1. -1. -1. -1. -1. -1. -1. -1. -1. -1. -1. -1. -1. -1. -1. -1. -1. -1. -1. -1. -1. -1. -1. -1. -1. -1. -1. -1. -1. -1. -1. -1. -1. -1. -1. -1. -1. -1. -1. 9.07757804e-02 8.97027552e-02 8.86548012e-02 8.76310468e-02 8.69623721e-02 8.66946131e-02 8.64284933e-02 8.61639977e-02 8.59011263e-02 8.56398493e-02 8.53801519e-02 8.51589218e-02 8.50396529e-02 8.49207267e-02 8.48021284e-02 8.46838653e-02 8.45659226e-02 8.44483152e-02 8.43310356e-02 8.42140764e-02 8.40974450e-02 8.39811340e-02 8.38651434e-02 8.37494731e-02 8.36341232e-02 8.35190862e-02 8.34043697e-02 8.32899660e-02 8.31758827e-02 8.30621049e-02 8.29486400e-02 8.29224959e-02 8.29137713e-02 8.29050466e-02 8.28963220e-02 8.28876048e-02 8.28788877e-02 8.28701705e-02 8.28614607e-02 8.28527436e-02 8.28440338e-02 8.28353316e-02 8.28266218e-02 8.28179196e-02 8.28092173e-02 8.28005150e-02 8.27918127e-02 8.27831179e-02 8.27744231e-02 8.27657282e-02 8.27570334e-02 8.27483460e-02 8.27396587e-02 8.27309713e-02 8.27222839e-02 8.27136040e-02 8.27049240e-02 8.26962441e-02 8.26875642e-02 8.26788917e-02 8.26702192e-02 8.26615468e-02 8.26528743e-02 8.26442093e-02 8.26355442e-02 8.26268792e-02 8.26182142e-02 8.26095566e-02 8.26008916e-02 8.25922340e-02 8.25835839e-02 8.25749263e-02 8.25662762e-02 8.25576261e-02 8.25489759e-02 8.25403333e-02 8.25316906e-02 8.25230479e-02 8.25144053e-02 8.25057626e-02 8.24971274e-02 8.24884921e-02 8.24798569e-02 8.24712291e-02 8.24625939e-02 8.24539661e-02 8.24453384e-02 8.24367180e-02 8.24280977e-02 8.24194700e-02 8.24108571e-02 8.24022368e-02 8.23826343e-02 8.23134035e-02 8.22573751e-02 8.22165161e-02 8.21756944e-02 8.21349099e-02 8.20941702e-02 8.20534676e-02 8.20128024e-02 8.19721818e-02 8.19316059e-02 8.18910673e-02 8.18505660e-02 8.18359479e-02 8.18419009e-02 8.18478465e-02 8.18537995e-02 8.18597525e-02 8.18657055e-02 8.18716586e-02 8.18776116e-02 8.18835720e-02 8.18895251e-02 8.18954855e-02 8.19014385e-02 8.19095373e-02 8.19183365e-02 8.19271356e-02 8.19359347e-02 8.19447339e-02 8.19535404e-02 8.19623470e-02 8.19711536e-02 8.19799677e-02 8.19887742e-02 8.19975883e-02 8.20064023e-02 8.20152238e-02 8.20240453e-02 8.20328668e-02 8.20416883e-02 8.20505098e-02 8.20593387e-02 8.20681676e-02 8.20769966e-02 8.20858330e-02 8.20946693e-02 8.21035057e-02 8.21123421e-02 8.21211785e-02 8.21300223e-02 8.21388662e-02 8.21477100e-02 8.21565613e-02 8.21768716e-02 8.22039321e-02 8.22310150e-02 8.22581127e-02 8.22852328e-02 8.23123679e-02 8.23395178e-02 8.23666900e-02 8.23938772e-02 8.24210867e-02 8.24483112e-02 8.24755505e-02 8.25028121e-02 8.25300962e-02 8.25620219e-02 8.25958624e-02 8.26297253e-02 8.26636180e-02 8.26975405e-02 8.27314928e-02 8.27654675e-02 8.27994794e-02 8.28335136e-02 8.28675702e-02 8.29016641e-02 8.29357803e-02 8.29699263e-02 8.30041021e-02 8.30383003e-02 8.30725357e-02 8.31067935e-02 8.31410810e-02 8.31753984e-02 8.32097381e-02 8.32441151e-02 8.32785144e-02 8.33129436e-02 8.33473951e-02 8.33818838e-02 8.34164023e-02 8.34509432e-02 8.34855139e-02 8.35201144e-02 8.35547447e-02 8.35893974e-02 8.36240873e-02 8.36587995e-02 8.36935490e-02 8.37283209e-02 8.37631226e-02 8.37979540e-02 8.38328153e-02 8.38728100e-02 8.39185938e-02 8.39644223e-02 8.40102956e-02 8.40562284e-02 8.41022059e-02 8.41482356e-02 8.41943175e-02 8.42404440e-02 8.42866227e-02 8.43328536e-02 8.43791366e-02 8.44254717e-02 8.44718516e-02 8.45182911e-02 8.45647752e-02 8.46113116e-02 8.46579000e-02 8.47045407e-02 8.47512335e-02 8.47979710e-02 8.48447680e-02 8.48916098e-02 8.49385113e-02 8.49854574e-02 8.50324631e-02 8.50795135e-02 8.51266161e-02 8.51862729e-02 8.52798298e-02 8.53735954e-02 8.54675621e-02 8.55617374e-02 8.56561214e-02 8.57507214e-02 8.58455226e-02 8.59405324e-02 8.60357583e-02 8.61332491e-02 8.62463266e-02 8.63597021e-02 8.64733756e-02 8.65873545e-02 8.67016241e-02 8.68161991e-02 8.69310796e-02 8.70462656e-02 8.71617571e-02 8.72775540e-02 8.73936564e-02 8.75100717e-02 8.76267999e-02 8.77438337e-02 8.78611803e-02 8.79788473e-02 8.80968273e-02 8.82151201e-02 8.83337408e-02 8.84526744e-02 8.85719284e-02 8.86915028e-02 8.88114050e-02 8.89316276e-02 8.90521780e-02 8.91730562e-02 8.92942622e-02 -1. -1. -1. -1. -1. -1. -1. -1.
    -1. -1. -1. -1. -1. -1. -1. -1. -1. -1. -1. -1. -1. -1. -1. -1. -1. -1. -1. -1. -1. -1. -1. -1. -1. -1. -1. -1. -1. -1. -1. -1. -1. -1. -1. -1. -1. -1. -1. -1. -1. -1. -1. -1. -1. -1. -1. -1. -1. -1. -1. -1. -1. -1. -1. -1. -1. -1. -1. -1. -1. -1. -1. -1. -1. -1. -1. -1. -1. -1. -1. -1. -1. -1. -1. -1. -1. -1. 9.07130018e-02 8.96414518e-02 8.85949209e-02 8.75725448e-02 8.70015025e-02 8.67334977e-02 8.64671394e-02 8.62024128e-02 8.59393030e-02 8.56777877e-02 8.54178667e-02 8.51802677e-02 8.50609466e-02 8.49419609e-02 8.48233029e-02 8.47049728e-02 8.45869780e-02 8.44693109e-02 8.43519717e-02 8.42349529e-02 8.41182619e-02 8.40018988e-02 8.38858485e-02 8.37701261e-02 8.36547166e-02 8.35396275e-02 8.34248513e-02 8.33103955e-02 8.31962451e-02 8.30824152e-02 8.29796195e-02 8.29708800e-02 8.29621479e-02 8.29534158e-02 8.29446837e-02 8.29359517e-02 8.29272270e-02 8.29185024e-02 8.29097778e-02 8.29010531e-02 8.28923360e-02 8.28836188e-02 8.28749016e-02 8.28661844e-02 8.28574747e-02 8.28487575e-02 8.28400478e-02 8.28313455e-02 8.28226358e-02 8.28139335e-02 8.28052312e-02 8.27965289e-02 8.27878341e-02 8.27791393e-02 8.27704445e-02 8.27617496e-02 8.27530622e-02 8.27443674e-02 8.27356800e-02 8.27270001e-02 8.27183127e-02 8.27096328e-02 8.27009529e-02 8.26922730e-02 8.26836005e-02 8.26749206e-02 8.26662481e-02 8.26575756e-02 8.26489106e-02 8.26402456e-02 8.26315731e-02 8.26229155e-02 8.26142505e-02 8.26055929e-02 8.25969353e-02 8.25882778e-02 8.25796202e-02 8.25709701e-02 8.25623199e-02 8.25536698e-02 8.25450197e-02 8.25363770e-02 8.25277343e-02 8.25190917e-02 8.25104490e-02 8.25018138e-02 8.24931785e-02 8.24845433e-02 8.24759081e-02 8.24672803e-02 8.24586451e-02 8.24090242e-02 8.23397562e-02 8.22917745e-02 8.22508782e-02 8.22100192e-02 8.21692050e-02 8.21284279e-02 8.20876956e-02 8.20470005e-02 8.20063427e-02 8.19657296e-02 8.19251537e-02 8.18846226e-02 8.18441287e-02 8.18281248e-02 8.18340778e-02 8.18400234e-02 8.18459764e-02 8.18519294e-02 8.18578824e-02 8.18638355e-02 8.18697885e-02 8.18757415e-02 8.18816945e-02 8.18876550e-02 8.18936080e-02 8.18995684e-02 8.19063708e-02 8.19151700e-02 8.19239691e-02 8.19327682e-02 8.19415674e-02 8.19503739e-02 8.19591805e-02 8.19679871e-02 8.19767937e-02 8.19856077e-02 8.19944218e-02 8.20032358e-02 8.20120499e-02 8.20208713e-02 8.20296928e-02 8.20385143e-02 8.20473358e-02 8.20561647e-02 8.20649937e-02 8.20738226e-02 8.20826516e-02 8.20914879e-02 8.21003243e-02 8.21091607e-02 8.21180046e-02 8.21268409e-02 8.21356848e-02 8.21445286e-02 8.21567178e-02 8.21837708e-02 8.22108388e-02 8.22379291e-02 8.22650269e-02 8.22921544e-02 8.23192894e-02 8.23464468e-02 8.23736265e-02 8.24008211e-02 8.24280307e-02 8.24552551e-02 8.24825093e-02 8.25097710e-02 8.25419202e-02 8.25757384e-02 8.26095939e-02 8.26434717e-02 8.26773718e-02 8.27113092e-02 8.27452689e-02 8.27792585e-02 8.28132778e-02 8.28473195e-02 8.28813910e-02 8.29154924e-02 8.29496235e-02 8.29837844e-02 8.30179676e-02 8.30521807e-02 8.30864236e-02 8.31206962e-02 8.31549913e-02 8.31893161e-02 8.32236782e-02 8.32580552e-02 8.32924694e-02 8.33269134e-02 8.33613798e-02 8.33958760e-02 8.34304020e-02 8.34649578e-02 8.34995434e-02 8.35341513e-02 8.35687965e-02 8.36034641e-02 8.36381614e-02 8.36728886e-02 8.37076455e-02 8.37424323e-02 8.37772414e-02 8.38210955e-02 8.38668197e-02 8.39125887e-02 8.39584097e-02 8.40042830e-02 8.40502009e-02 8.40961784e-02 8.41422006e-02 8.41882750e-02 8.42343941e-02 8.42805654e-02 8.43267962e-02 8.43730718e-02 8.44193920e-02 8.44657719e-02 8.45121965e-02 8.45586807e-02 8.46052095e-02 8.46517906e-02 8.46984237e-02 8.47451091e-02 8.47918466e-02 8.48386288e-02 8.48854706e-02 8.49323571e-02 8.49793032e-02 8.50262940e-02 8.50733444e-02 8.51204395e-02 8.51694271e-02 8.52629468e-02 8.53566751e-02 8.54506120e-02 8.55447501e-02 8.56390968e-02 8.57336521e-02 8.58284160e-02 8.59233886e-02 8.60185772e-02 8.61139670e-02 8.62150714e-02 8.63283649e-02 8.64419565e-02 8.65558460e-02 8.66700336e-02 8.67845267e-02 8.68993253e-02 8.70144293e-02 8.71298313e-02 8.72455463e-02 8.73615667e-02 8.74778926e-02 8.75945315e-02 8.77114832e-02 8.78287479e-02 8.79463255e-02 8.80642161e-02 8.81824270e-02 8.83009508e-02 8.84197950e-02 8.85389596e-02 8.86584520e-02 8.87782574e-02 8.88983980e-02 8.90188515e-02 8.91396403e-02 8.92607570e-02 -1. -1. -1. -1. -1. -1. -1. -1.
    -1. -1. -1. -1. -1. -1. -1. -1. -1. -1. -1. -1. -1. -1. -1. -1. -1. -1. -1. -1. -1. -1. -1. -1. -1. -1. -1. -1. -1. -1. -1. -1. -1. -1. -1. -1. -1. -1. -1. -1. -1. -1. -1. -1. -1. -1. -1. -1. -1. -1. -1. -1. -1. -1. -1. -1. -1. -1. -1. -1. -1. -1. -1. -1. -1. -1. -1. -1. -1. -1. -1. -1. -1. -1. -1. -1. -1. -1. 9.06503126e-02 8.95802379e-02 8.85351226e-02 8.75141174e-02 8.70406628e-02 8.67724195e-02 8.65058228e-02 8.62408578e-02 8.59775096e-02 8.57157707e-02 8.54556113e-02 8.52016285e-02 8.50822479e-02 8.49632025e-02 8.48444849e-02 8.47260952e-02 8.46080408e-02 8.44903141e-02 8.43729153e-02 8.42558444e-02 8.41390938e-02 8.40226710e-02 8.39065686e-02 8.37907791e-02 8.36753175e-02 8.35601687e-02 8.34453404e-02 8.33308250e-02 8.32166225e-02 8.31027329e-02 8.30280781e-02 8.30193311e-02 8.30105841e-02 8.30018371e-02 8.29930976e-02 8.29843581e-02 8.29756185e-02 8.29668865e-02 8.29581544e-02 8.29494223e-02 8.29406902e-02 8.29319581e-02 8.29232335e-02 8.29145089e-02 8.29057842e-02 8.28970671e-02 8.28883424e-02 8.28796253e-02 8.28709081e-02 8.28621984e-02 8.28534886e-02 8.28447714e-02 8.28360692e-02 8.28273594e-02 8.28186572e-02 8.28099549e-02 8.28012526e-02 8.27925503e-02 8.27838555e-02 8.27751607e-02 8.27664658e-02 8.27577710e-02 8.27490836e-02 8.27403963e-02 8.27317089e-02 8.27230215e-02 8.27143416e-02 8.27056617e-02 8.26969817e-02 8.26883018e-02 8.26796293e-02 8.26709569e-02 8.26622844e-02 8.26536119e-02 8.26449394e-02 8.26362744e-02 8.26276094e-02 8.26189518e-02 8.26102868e-02 8.26016292e-02 8.25929716e-02 8.25843140e-02 8.25756639e-02 8.25670138e-02 8.25583637e-02 8.25497136e-02 8.25410634e-02 8.25324208e-02 8.25237781e-02 8.25048685e-02 8.24354365e-02 8.23671743e-02 8.23262036e-02 8.22852701e-02 8.22443813e-02 8.22035298e-02 8.21627229e-02 8.21219534e-02 8.20812210e-02 8.20405334e-02 8.19998831e-02 8.19592774e-02 8.19187090e-02 8.18781853e-02 8.18376988e-02 8.18203092e-02 8.18262547e-02 8.18322077e-02 8.18381533e-02 8.18441063e-02 8.18500519e-02 8.18560049e-02 8.18619579e-02 8.18679109e-02 8.18738639e-02 8.18798244e-02 8.18857774e-02 8.18917379e-02 8.18976909e-02 8.19036514e-02 8.19120035e-02 8.19208026e-02 8.19296017e-02 8.19384009e-02 8.19472075e-02 8.19560140e-02 8.19648206e-02 8.19736272e-02 8.19824338e-02 8.19912478e-02 8.20000619e-02 8.20088834e-02 8.20176974e-02 8.20265189e-02 8.20353404e-02 8.20441619e-02 8.20529908e-02 8.20618197e-02 8.20706487e-02 8.20794776e-02 8.20883140e-02 8.20971429e-02 8.21059793e-02 8.21148232e-02 8.21236596e-02 8.21325034e-02 8.21413472e-02 8.21636170e-02 8.21906701e-02 8.22177455e-02 8.22448358e-02 8.22719485e-02 8.22990686e-02 8.23262185e-02 8.23533759e-02 8.23805556e-02 8.24077576e-02 8.24349746e-02 8.24622065e-02 8.24894607e-02 8.25218260e-02 8.25556293e-02 8.25894624e-02 8.26233253e-02 8.26572180e-02 8.26911330e-02 8.27250779e-02 8.27590525e-02 8.27930495e-02 8.28270763e-02 8.28611329e-02 8.28952193e-02 8.29293355e-02 8.29634741e-02 8.29976425e-02 8.30318406e-02 8.30660611e-02 8.31003189e-02 8.31345990e-02 8.31689090e-02 8.32032487e-02 8.32376182e-02 8.32720101e-02 8.33064318e-02 8.33408833e-02 8.33753645e-02 8.34098756e-02 8.34444165e-02 8.34789798e-02 8.35135728e-02 8.35481957e-02 8.35828483e-02 8.36175308e-02 8.36522430e-02 8.36869776e-02 8.37238282e-02 8.37694407e-02 8.38151053e-02 8.38608220e-02 8.39065835e-02 8.39524046e-02 8.39982703e-02 8.40441808e-02 8.40901509e-02 8.41361657e-02 8.41822326e-02 8.42283443e-02 8.42745155e-02 8.43207315e-02 8.43669996e-02 8.44133198e-02 8.44596922e-02 8.45061094e-02 8.45525861e-02 8.45991075e-02 8.46456811e-02 8.46923068e-02 8.47389847e-02 8.47857147e-02 8.48324969e-02 8.48793313e-02 8.49262103e-02 8.49731490e-02 8.50201324e-02 8.50671753e-02 8.51142630e-02 8.51614103e-02 8.52460787e-02 8.53397623e-02 8.54336619e-02 8.55277628e-02 8.56220722e-02 8.57165903e-02 8.58113170e-02 8.59062523e-02 8.60014036e-02 8.60967562e-02 8.61923248e-02 8.62970427e-02 8.64105597e-02 8.65243673e-02 8.66384730e-02 8.67528841e-02 8.68675932e-02 8.69826078e-02 8.70979279e-02 8.72135609e-02 8.73294920e-02 8.74457359e-02 8.75622928e-02 8.76791552e-02 8.77963305e-02 8.79138187e-02 8.80316272e-02 8.81497487e-02 8.82681832e-02 8.83869454e-02 8.85060206e-02 8.86254236e-02 8.87451395e-02 8.88651833e-02 8.89855549e-02 8.91062543e-02 8.92272815e-02 -1. -1. -1. -1. -1. -1. -1. -1.
    -1. -1. -1. -1. -1. -1. -1. -1. -1. -1. -1. -1. -1. -1. -1. -1. -1. -1. -1. -1. -1. -1. -1. -1. -1. -1. -1. -1. -1. -1. -1. -1. -1. -1. -1. -1. -1. -1. -1. -1. -1. -1. -1. -1. -1. -1. -1. -1. -1. -1. -1. -1. -1. -1. -1. -1. -1. -1. -1. -1. -1. -1. -1. -1. -1. -1. -1. -1. -1. -1. -1. -1. -1. -1. -1. -1. -1. -1. 9.05877128e-02 8.95190984e-02 8.84754062e-02 8.74557719e-02 8.70798603e-02 8.68113711e-02 8.65445361e-02 8.62793326e-02 8.60157534e-02 8.57537761e-02 8.54933932e-02 8.52345899e-02 8.51035565e-02 8.49844515e-02 8.48656744e-02 8.47472325e-02 8.46291184e-02 8.45113322e-02 8.43938738e-02 8.42767432e-02 8.41599405e-02 8.40434581e-02 8.39272961e-02 8.38114545e-02 8.36959332e-02 8.35807249e-02 8.34658444e-02 8.33512694e-02 8.32370147e-02 8.31230655e-02 8.30765888e-02 8.30678344e-02 8.30590725e-02 8.30503255e-02 8.30415711e-02 8.30328241e-02 8.30240697e-02 8.30153301e-02 8.30065832e-02 8.29978362e-02 8.29890966e-02 8.29803571e-02 8.29716250e-02 8.29628855e-02 8.29541534e-02 8.29454213e-02 8.29366967e-02 8.29279646e-02 8.29192400e-02 8.29105154e-02 8.29017907e-02 8.28930736e-02 8.28843564e-02 8.28756392e-02 8.28669220e-02 8.28582123e-02 8.28495026e-02 8.28407928e-02 8.28320831e-02 8.28233734e-02 8.28146711e-02 8.28059688e-02 8.27972665e-02 8.27885717e-02 8.27798769e-02 8.27711821e-02 8.27624872e-02 8.27537924e-02 8.27451050e-02 8.27364177e-02 8.27277303e-02 8.27190503e-02 8.27103704e-02 8.27016905e-02 8.26930106e-02 8.26843306e-02 8.26756582e-02 8.26669857e-02 8.26583132e-02 8.26496407e-02 8.26409757e-02 8.26323107e-02 8.26236457e-02 8.26149881e-02 8.26063231e-02 8.25976655e-02 8.25890079e-02 8.25803578e-02 8.25313404e-02 8.24618638e-02 8.24016631e-02 8.23606551e-02 8.23196918e-02 8.22787657e-02 8.22378844e-02 8.21970403e-02 8.21562335e-02 8.21154714e-02 8.20747539e-02 8.20340663e-02 8.19934309e-02 8.19528252e-02 8.19122642e-02 8.18717405e-02 8.18312615e-02 8.18124935e-02 8.18184391e-02 8.18243846e-02 8.18303302e-02 8.18362832e-02 8.18422288e-02 8.18481818e-02 8.18541348e-02 8.18600878e-02 8.18660408e-02 8.18719938e-02 8.18779469e-02 8.18839073e-02 8.18898603e-02 8.18958208e-02 8.19017738e-02 8.19088444e-02 8.19176361e-02 8.19264352e-02 8.19352344e-02 8.19440410e-02 8.19528475e-02 8.19616467e-02 8.19704607e-02 8.19792673e-02 8.19880813e-02 8.19968954e-02 8.20057094e-02 8.20145234e-02 8.20233449e-02 8.20321664e-02 8.20409879e-02 8.20498168e-02 8.20586383e-02 8.20674673e-02 8.20763037e-02 8.20851326e-02 8.20939690e-02 8.21028054e-02 8.21116418e-02 8.21204856e-02 8.21293220e-02 8.21434781e-02 8.21705163e-02 8.21975768e-02 8.22246522e-02 8.22517499e-02 8.22788626e-02 8.23059976e-02 8.23331401e-02 8.23603123e-02 8.23874921e-02 8.24146941e-02 8.24419186e-02 8.24691579e-02 8.25017393e-02 8.25355276e-02 8.25693458e-02 8.26031938e-02 8.26370642e-02 8.26709643e-02 8.27048942e-02 8.27388540e-02 8.27728361e-02 8.28068480e-02 8.28408897e-02 8.28749537e-02 8.29090476e-02 8.29431713e-02 8.29773247e-02 8.30115080e-02 8.30457136e-02 8.30799490e-02 8.31142142e-02 8.31485093e-02 8.31828341e-02 8.32171813e-02 8.32515582e-02 8.32859650e-02 8.33204016e-02 8.33548680e-02 8.33893567e-02 8.34238753e-02 8.34584311e-02 8.34930092e-02 8.35276097e-02 8.35622475e-02 8.35969150e-02 8.36316049e-02 8.36722925e-02 8.37178528e-02 8.37634578e-02 8.38091150e-02 8.38548243e-02 8.39005858e-02 8.39463919e-02 8.39922503e-02 8.40381607e-02 8.40841234e-02 8.41301307e-02 8.41761902e-02 8.42223018e-02 8.42684582e-02 8.43146741e-02 8.43609348e-02 8.44072476e-02 8.44536126e-02 8.45000222e-02 8.45464915e-02 8.45930055e-02 8.46395791e-02 8.46861973e-02 8.47328678e-02 8.47795904e-02 8.48263577e-02 8.48731846e-02 8.49200636e-02 8.49669948e-02 8.50139707e-02 8.50610062e-02 8.51080939e-02 8.51552263e-02 8.52292106e-02 8.53228644e-02 8.54167193e-02 8.55107829e-02 8.56050551e-02 8.56995359e-02 8.57942253e-02 8.58891234e-02 8.59842300e-02 8.60795528e-02 8.61750841e-02 8.62708241e-02 8.63791779e-02 8.64929035e-02 8.66069272e-02 8.67212564e-02 8.68358836e-02 8.69508162e-02 8.70660543e-02 8.71815979e-02 8.72974470e-02 8.74136016e-02 8.75300691e-02 8.76468495e-02 8.77639428e-02 8.78813416e-02 8.79990608e-02 8.81170928e-02 8.82354453e-02 8.83541182e-02 8.84731039e-02 8.85924175e-02 8.87120441e-02 8.88320059e-02 8.89522806e-02 8.90728906e-02 8.91938210e-02 -1. -1. -1. -1. -1. -1. -1. -1.
    -1. -1. -1. -1. -1. -1. -1. -1. -1. -1. -1. -1. -1. -1. -1. -1. -1. -1. -1. -1. -1. -1. -1. -1. -1. -1. -1. -1. -1. -1. -1. -1. -1. -1. -1. -1. -1. -1. -1. -1. -1. -1. -1. -1. -1. -1. -1. -1. -1. -1. -1. -1. -1. -1. -1. -1. -1. -1. -1. -1. -1. -1. -1. -1. -1. -1. -1. -1. -1. -1. -1. -1. -1. -1. -1. -1. -1. -1. 9.05251950e-02 8.94580483e-02 8.84157717e-02 8.73975009e-02 8.71190876e-02 8.68503600e-02 8.65832865e-02 8.63178447e-02 8.60540345e-02 8.57918262e-02 8.55312124e-02 8.52721706e-02 8.51248801e-02 8.50057155e-02 8.48868787e-02 8.47683772e-02 8.46502036e-02 8.45323578e-02 8.44148472e-02 8.42976570e-02 8.41807872e-02 8.40642452e-02 8.39480311e-02 8.38321298e-02 8.37165564e-02 8.36012959e-02 8.34863484e-02 8.33717212e-02 8.32574069e-02 8.31434056e-02 8.31251591e-02 8.31163898e-02 8.31076279e-02 8.30988586e-02 8.30900967e-02 8.30813423e-02 8.30725804e-02 8.30638260e-02 8.30550715e-02 8.30463171e-02 8.30375701e-02 8.30288157e-02 8.30200687e-02 8.30113217e-02 8.30025822e-02 8.29938427e-02 8.29851031e-02 8.29763636e-02 8.29676241e-02 8.29588920e-02 8.29501599e-02 8.29414278e-02 8.29327032e-02 8.29239711e-02 8.29152465e-02 8.29065219e-02 8.28978047e-02 8.28890800e-02 8.28803629e-02 8.28716531e-02 8.28629360e-02 8.28542262e-02 8.28455165e-02 8.28368068e-02 8.28280970e-02 8.28193948e-02 8.28106925e-02 8.28019902e-02 8.27932879e-02 8.27845931e-02 8.27758983e-02 8.27672035e-02 8.27585086e-02 8.27498212e-02 8.27411339e-02 8.27324465e-02 8.27237591e-02 8.27150792e-02 8.27063918e-02 8.26977193e-02 8.26890394e-02 8.26803595e-02 8.26716870e-02 8.26630145e-02 8.26543495e-02 8.26456770e-02 8.26274678e-02 8.25578347e-02 8.24883133e-02 8.24361816e-02 8.23951438e-02 8.23541433e-02 8.23131874e-02 8.22722688e-02 8.22313875e-02 8.21905509e-02 8.21497515e-02 8.21089968e-02 8.20682794e-02 8.20276067e-02 8.19869712e-02 8.19463730e-02 8.19058195e-02 8.18653032e-02 8.18248317e-02 8.18046778e-02 8.18106234e-02 8.18165690e-02 8.18225145e-02 8.18284601e-02 8.18344131e-02 8.18403587e-02 8.18463117e-02 8.18522647e-02 8.18582177e-02 8.18641707e-02 8.18701237e-02 8.18760768e-02 8.18820298e-02 8.18879902e-02 8.18939433e-02 8.18999037e-02 8.19058642e-02 8.19144771e-02 8.19232762e-02 8.19320753e-02 8.19408745e-02 8.19496736e-02 8.19584802e-02 8.19672868e-02 8.19761008e-02 8.19849074e-02 8.19937214e-02 8.20025355e-02 8.20113569e-02 8.20201710e-02 8.20289925e-02 8.20378140e-02 8.20466429e-02 8.20554644e-02 8.20642933e-02 8.20731223e-02 8.20819587e-02 8.20907876e-02 8.20996240e-02 8.21084604e-02 8.21173042e-02 8.21261406e-02 8.21503699e-02 8.21774155e-02 8.22044834e-02 8.22315663e-02 8.22586641e-02 8.22857842e-02 8.23129192e-02 8.23400691e-02 8.23672414e-02 8.23944286e-02 8.24216381e-02 8.24488625e-02 8.24816674e-02 8.25154409e-02 8.25492442e-02 8.25830698e-02 8.26169252e-02 8.26508105e-02 8.26847181e-02 8.27186629e-02 8.27526301e-02 8.27866271e-02 8.28206465e-02 8.28546956e-02 8.28887746e-02 8.29228833e-02 8.29570219e-02 8.29911828e-02 8.30253735e-02 8.30595940e-02 8.30938444e-02 8.31281245e-02 8.31624269e-02 8.31967592e-02 8.32311213e-02 8.32655132e-02 8.32999274e-02 8.33343714e-02 8.33688527e-02 8.34033564e-02 8.34378898e-02 8.34724456e-02 8.35070387e-02 8.35416541e-02 8.35762993e-02 8.36208165e-02 8.36663246e-02 8.37118775e-02 8.37574750e-02 8.38031322e-02 8.38488340e-02 8.38945881e-02 8.39403868e-02 8.39862376e-02 8.40321407e-02 8.40780959e-02 8.41240957e-02 8.41701478e-02 8.42162520e-02 8.42624083e-02 8.43086094e-02 8.43548700e-02 8.44011754e-02 8.44475329e-02 8.44939351e-02 8.45403969e-02 8.45869109e-02 8.46334696e-02 8.46800804e-02 8.47267434e-02 8.47734585e-02 8.48202258e-02 8.48670453e-02 8.49139169e-02 8.49608406e-02 8.50078166e-02 8.50548372e-02 8.51019174e-02 8.51490498e-02 8.52123499e-02 8.53059664e-02 8.53997841e-02 8.54938105e-02 8.55880454e-02 8.56824890e-02 8.57771412e-02 8.58720019e-02 8.59670714e-02 8.60623568e-02 8.61578509e-02 8.62535536e-02 8.63494724e-02 8.64614695e-02 8.65754113e-02 8.66896510e-02 8.68041962e-02 8.69190469e-02 8.70342031e-02 8.71496573e-02 8.72654244e-02 8.73814970e-02 8.74978751e-02 8.76145735e-02 8.77315775e-02 8.78488943e-02 8.79665241e-02 8.80844668e-02 8.82027298e-02 8.83213133e-02 8.84402096e-02 8.85594338e-02 8.86789784e-02 8.87988433e-02 8.89190361e-02 8.90395492e-02 8.91603902e-02 -1. -1. -1. -1. -1. -1. -1. -1.</data></depth>
</opencv_storage>
